1598.5000 -1653.0000 0.0117 0.12549 0.0941176 0.0941176
396.2000 -796.0000 0.0008 0.129412 0.101961 0.101961
1999.9675 -239.6982 1359.6000 0.654902 0.654902 0.470588
1429.9000 -23.4000 -0.0306 0.215686 0.184314 0.184314
2000.0074 -83.5001 1361.3000 0.666667 0.666667 0.482353
3.6000 -1223.8000 0.0110 0.192157 0.160784 0.160784
1192.7004 -2000.0007 135.3000 0.654902 0.654902 0.458824
1497.2950 -1999.9946 304.7000 0.658824 0.658824 0.466667
2000.0013 -146.8000 881.5000 0.694118 0.694118 0.521569
1437.4176 -2000.0188 182.3000 0.658824 0.658824 0.470588
1999.9751 -107.3994 1761.5000 0.635294 0.635294 0.439216
2000.0038 -178.0002 1278.2000 0.666667 0.666667 0.482353
1999.9908 -288.8994 217.7000 0.737255 0.737255 0.576471
96.0000 -732.9000 0.0037 0.215686 0.180392 0.180392
1115.7914 -1999.9851 275.9000 0.65098 0.65098 0.45098
1455.5000 -1633.9000 -0.0402 0.12549 0.0941176 0.0941176
1418.8116 -2000.0134 243.5000 0.658824 0.658824 0.466667
837.7000 -2000.0000 145.8000 0.639216 0.639216 0.439216
1411.1000 -1208.4000 0.0080 0.12549 0.0941176 0.0941176
476.3000 -841.2000 -0.0076 0.12549 0.0941176 0.0941176
1109.1000 -395.4000 0.0001 0.12549 0.0941176 0.0941176
1999.9991 -1679.9998 244.5000 0.682353 0.682353 0.494118
2000.0085 -207.7004 16.1000 0.74902 0.74902 0.6
2000.0105 -309.7007 322.2000 0.72549 0.72549 0.560784
1317.2000 -531.0000 -0.0074 0.12549 0.0941176 0.0941176
1239.3960 -1999.9893 1021.2000 0.631373 0.631373 0.419608
581.6016 -2000.0076 326.8000 0.631373 0.631373 0.419608
826.1899 -1999.9696 374.9000 0.635294 0.635294 0.435294
298.5000 -780.0000 0.0050 0.160784 0.129412 0.129412
1999.9849 -381.1987 1095.5000 0.670588 0.670588 0.490196
1628.7000 -1611.7000 -0.0012 0.12549 0.0941176 0.0941176
1189.8975 -1999.9923 1037.2000 0.627451 0.627451 0.415686
1396.4000 -1250.1000 0.0033 0.12549 0.0901961 0.0901961
258.3004 -2000.0031 18.9000 0.631373 0.631373 0.419608
1155.9000 -471.9000 0.0174 0.12549 0.0941176 0.0941176
1805.0000 -221.4000 -0.0233 0.160784 0.12549 0.12549
479.2970 -1999.9865 74.1000 0.635294 0.635294 0.431373
1999.9994 -275.9000 1147.9000 0.670588 0.670588 0.490196
2000.0406 -860.8082 1118.4000 0.65098 0.65098 0.458824
2000.0072 -294.5005 526.5000 0.709804 0.709804 0.545098
1148.9087 -2000.0195 653.1000 0.635294 0.635294 0.435294
1229.7000 -1340.4000 0.0228 0.12549 0.0941176 0.0941176
1605.0865 -1999.9728 1326.0000 0.635294 0.635294 0.427451
1999.9871 -127.0996 90.0000 0.74902 0.74902 0.6
1191.0000 -1885.1000 -0.0211 0.160784 0.12549 0.12549
2000.0264 -380.2023 119.5000 0.741176 0.741176 0.580392
666.6990 -1999.9940 617.9000 0.619608 0.619608 0.415686
2000.0212 -434.7021 1133.9000 0.670588 0.670588 0.482353
183.7000 -848.7000 0.0064 0.192157 0.160784 0.160784
1999.9967 -365.5997 1595.5000 0.635294 0.635294 0.439216
2000.0111 -1698.2046 58.6000 0.690196 0.690196 0.509804
1667.5000 -1609.1000 0.0239 0.12549 0.0941176 0.0941176
1999.9978 -290.3999 420.8000 0.721569 0.721569 0.556863
1999.9720 -686.1955 1247.3000 0.65098 0.65098 0.454902
2000.0151 -132.1005 1108.2000 0.682353 0.682353 0.501961
1469.2004 -2000.0006 601.4000 0.65098 0.65098 0.45098
289.9037 -2000.0272 7.9000 0.631373 0.631373 0.427451
1999.9875 -209.9994 1678.7000 0.635294 0.635294 0.439216
1125.4000 -1659.5000 -0.0147 0.12549 0.0941176 0.0941176
292.4000 -857.6000 -0.0294 0.160784 0.129412 0.129412
1999.9985 -26.6000 1896.1000 0.631373 0.631373 0.435294
1424.6000 -52.7000 -0.0262 0.2 0.168627 0.168627
1999.9531 -376.4960 788.9000 0.690196 0.690196 0.513725
1875.3915 -1999.9926 614.9000 0.666667 0.666667 0.470588
1825.7972 -1999.9948 1611.7000 0.631373 0.631373 0.419608
2000.0051 -570.9007 929.5000 0.67451 0.67451 0.490196
1724.3763 -1999.9801 297.6000 0.670588 0.670588 0.47451
1442.1000 -1481.7000 -0.0355 0.12549 0.0941176 0.0941176
2000.0227 -195.3010 416.1000 0.72549 0.72549 0.560784
1663.0000 -1959.1000 0.0039 0.176471 0.145098 0.145098
2000.0138 -346.0011 5.7000 0.745098 0.745098 0.596078
1812.5060 -2000.0077 1068.8000 0.647059 0.647059 0.447059
2000.0107 -634.1016 913.1000 0.670588 0.670588 0.490196
1999.9801 -293.1987 1318.3000 0.658824 0.658824 0.470588
1819.8293 -2000.0179 1.5000 0.682353 0.682353 0.490196
70.9000 -1663.4000 -0.0148 0.14902 0.113725 0.113725
1999.9742 -165.2990 1136.2000 0.67451 0.67451 0.494118
961.6000 -1576.2000 -0.0103 0.12549 0.0941176 0.0941176
2000.0183 -128.3005 1318.2000 0.666667 0.666667 0.482353
1999.9872 -476.4986 1516.2000 0.635294 0.635294 0.439216
2000.0100 -256.2006 491.4000 0.713725 0.713725 0.54902
1999.9922 -341.5994 729.8000 0.694118 0.694118 0.52549
544.6000 -1169.2000 -0.0098 0.12549 0.0941176 0.0941176
1542.7000 -1937.1000 -0.0214 0.168627 0.137255 0.137255
2000.0125 -528.7015 813.3000 0.686275 0.686275 0.505882
1358.3000 -990.7000 0.0228 0.12549 0.0941176 0.0941176
413.8005 -2000.0043 299.7000 0.627451 0.627451 0.415686
2000.0138 -1035.7034 844.6000 0.666667 0.666667 0.47451
1796.2231 -2000.0322 1150.3999 0.647059 0.647059 0.439216
1467.9000 -97.9000 0.0015 0.180392 0.145098 0.145098
1999.9872 -190.3994 1609.5000 0.647059 0.647059 0.45098
1999.9628 -79.1993 1892.7000 0.631373 0.631373 0.431373
1999.9991 -686.5999 782.8000 0.682353 0.682353 0.501961
1561.8936 -1999.9856 1364.2000 0.631373 0.631373 0.419608
2000.0028 -107.4001 1217.6000 0.670588 0.670588 0.490196
1999.9604 -39.5996 1831.7000 0.635294 0.635294 0.435294
1999.9846 -195.0993 1207.8000 0.670588 0.670588 0.490196
2000.0164 -148.1005 276.0000 0.737255 0.737255 0.580392
2000.0300 -289.6020 405.3000 0.72549 0.72549 0.560784
378.0000 -654.4000 0.0323 0.141176 0.105882 0.105882
2000.0259 -180.9011 1639.6000 0.639216 0.639216 0.45098
2000.0092 -131.8003 26.5000 0.756863 0.756863 0.6
2000.0242 -1716.8102 28.1000 0.694118 0.694118 0.513725
1999.9882 -335.3991 548.4000 0.709804 0.709804 0.545098
2000.0057 -815.7011 887.3000 0.670588 0.670588 0.486275
2000.0251 -171.0010 228.0000 0.741176 0.741176 0.580392
1985.7000 -396.9000 0.0337 0.2 0.164706 0.164706
2000.0220 -368.3018 209.7000 0.729412 0.729412 0.568627
1854.5000 -1746.6000 0.0043 0.145098 0.109804 0.109804
2000.0282 -809.8053 1086.7000 0.654902 0.654902 0.466667
1999.9796 -498.2977 799.2000 0.690196 0.690196 0.505882
1519.9000 -1385.8000 0.0174 0.12549 0.0941176 0.0941176
224.4001 -2000.0021 149.0000 0.619608 0.619608 0.415686
1212.5020 -2000.0024 76.0000 0.654902 0.654902 0.466667
1022.1000 -1255.5000 -0.0001 0.12549 0.0941176 0.0941176
2000.0082 -211.4004 495.0000 0.721569 0.721569 0.556863
2000.0209 -346.7017 1591.9000 0.635294 0.635294 0.439216
1999.9969 -812.1994 761.2000 0.67451 0.67451 0.494118
1459.5928 -1999.9883 785.6000 0.647059 0.647059 0.439216
2000.0140 -205.2007 1369.7000 0.658824 0.658824 0.470588
1777.3997 -1999.9998 761.0000 0.654902 0.654902 0.454902
2000.0023 -570.3003 1155.9000 0.658824 0.658824 0.470588
1999.9895 -205.8995 1729.6000 0.635294 0.635294 0.435294
125.3000 -1744.6000 -0.0198 0.137255 0.105882 0.105882
781.7000 -283.2000 -0.0156 0.12549 0.0941176 0.0941176
2000.0151 -85.3003 890.2000 0.694118 0.694118 0.52549
2000.0278 -568.3037 814.8000 0.686275 0.686275 0.505882
2000.0061 -82.8001 1679.0000 0.639216 0.639216 0.45098
2000.0011 -98.8000 712.0000 0.705882 0.705882 0.541176
449.4000 -661.1000 -0.0067 0.12549 0.0941176 0.0941176
945.0000 -1162.7000 0.0141 0.12549 0.0941176 0.0941176
2000.0295 -499.6034 916.1000 0.682353 0.682353 0.501961
2000.0507 -399.0047 542.6999 0.705882 0.705882 0.541176
388.9000 -534.5000 -0.0242 0.141176 0.105882 0.105882
2000.0061 -550.8008 905.9000 0.67451 0.67451 0.494118
1292.4174 -2000.0352 790.1999 0.635294 0.635294 0.435294
408.6999 -1175.0001 -0.0565 0.12549 0.0941176 0.0941176
1085.8000 -46.8000 0.0035 0.215686 0.184314 0.184314
42.7000 -658.2000 0.0069 0.227451 0.196078 0.196078
2000.0031 -172.6001 451.8000 0.72549 0.72549 0.560784
70.1000 -487.2000 -0.0277 0.235294 0.2 0.2
985.2000 -1534.0000 -0.0263 0.12549 0.0941176 0.0941176
1999.9860 -0.8000 1502.0000 0.654902 0.654902 0.470588
665.9000 -108.5000 -0.0122 0.196078 0.160784 0.160784
1999.9696 -437.4970 1056.5000 0.670588 0.670588 0.490196
895.0000 -1161.8000 -0.0070 0.12549 0.0901961 0.0901961
1999.9587 -1031.7899 882.5001 0.658824 0.658824 0.470588
2000.0182 -1642.4073 236.7000 0.686275 0.686275 0.501961
2000.0033 -70.6001 1131.6000 0.682353 0.682353 0.501961
2000.0159 -422.1016 936.6000 0.682353 0.682353 0.501961
1999.9703 -306.9979 523.4000 0.709804 0.709804 0.545098
1065.3970 -1999.9944 282.5000 0.647059 0.647059 0.45098
2000.0135 -17.3001 279.9000 0.741176 0.741176 0.584314
1999.9832 -1815.5925 133.6000 0.686275 0.686275 0.501961
825.6000 -1188.7000 0.0223 0.12549 0.0941176 0.0941176
1361.6000 -1645.7000 -0.0060 0.12549 0.0941176 0.0941176
1999.9781 -1137.4941 807.6000 0.666667 0.666667 0.470588
1999.9941 -90.7999 1404.9000 0.658824 0.658824 0.47451
1999.9707 -1864.8865 102.8000 0.686275 0.686275 0.501961
2000.0087 -541.2011 798.7000 0.686275 0.686275 0.505882
1999.9717 -515.0966 966.8000 0.67451 0.67451 0.490196
1434.5834 -1999.9777 490.9000 0.65098 0.65098 0.45098
2000.0020 -443.0002 1189.5000 0.658824 0.658824 0.47451
1999.9996 -666.0999 1283.6000 0.65098 0.65098 0.45098
1872.1000 -1709.2000 0.0275 0.145098 0.109804 0.109804
1999.9813 -544.8976 925.5000 0.67451 0.67451 0.494118
1999.9869 -1751.8944 108.8000 0.690196 0.690196 0.505882
1226.4000 -1073.8000 0.0413 0.12549 0.0941176 0.0941176
2000.0172 -622.4025 1002.2000 0.670588 0.670588 0.486275
1999.9922 -742.4987 787.6000 0.682353 0.682353 0.494118
1411.7000 -876.5000 -0.0264 0.12549 0.0941176 0.0941176
1999.9990 -98.1000 1667.1000 0.639216 0.639216 0.45098
2000.0024 -1810.7010 66.5000 0.690196 0.690196 0.505882
1130.8000 -1866.9000 0.0148 0.156863 0.12549 0.12549
523.3081 -2000.0352 131.4000 0.635294 0.635294 0.431373
2000.0103 -293.1007 1455.2000 0.65098 0.65098 0.454902
1999.9847 -447.7984 1047.9000 0.670588 0.670588 0.490196
1999.9838 -340.9987 345.1000 0.72549 0.72549 0.560784
2000.0114 -154.1004 1525.9000 0.65098 0.65098 0.458824
112.9007 -2000.0205 68.6000 0.619608 0.619608 0.415686
2000.0188 -36.0002 150.4000 0.74902 0.74902 0.596078
1999.9803 -398.4982 237.8000 0.729412 0.729412 0.564706
1999.9760 -157.3991 1497.0000 0.65098 0.65098 0.458824
1999.9982 -39.1000 1743.0000 0.639216 0.639216 0.447059
1999.9849 -160.0994 1039.5000 0.686275 0.686275 0.505882
902.1000 -46.6000 0.0265 0.219608 0.192157 0.192157
2000.0061 -33.0001 1892.6000 0.631373 0.631373 0.435294
1416.2000 -1274.7000 -0.0058 0.12549 0.0941176 0.0941176
1844.5000 -1958.5000 0.0024 0.180392 0.145098 0.145098
1797.9203 -2000.0284 1161.3000 0.639216 0.639216 0.439216
1999.9659 -200.4984 1766.8000 0.635294 0.635294 0.435294
709.7000 -1046.6000 0.0027 0.12549 0.0941176 0.0941176
2000.0085 -55.1001 1767.8000 0.635294 0.635294 0.439216
1999.9489 -28.8996 1647.2001 0.647059 0.647059 0.454902
1722.7000 -189.7000 0.0193 0.160784 0.129412 0.129412
665.5007 -2000.0040 589.5000 0.619608 0.619608 0.415686
751.4000 -1161.4000 0.0129 0.12549 0.0941176 0.0941176
1069.8000 -365.3000 0.0048 0.12549 0.0941176 0.0941176
1999.9862 -628.9980 1283.9000 0.65098 0.65098 0.454902
1532.7043 -2000.0100 1371.7000 0.631373 0.631373 0.415686
1057.9000 -448.8000 -0.0227 0.12549 0.0941176 0.0941176
2000.0314 -33.4003 1640.2000 0.647059 0.647059 0.454902
1853.5078 -2000.0055 249.5000 0.670588 0.670588 0.486275
2000.0159 -766.7028 868.8000 0.670588 0.670588 0.490196
2000.0175 -242.3010 1233.3000 0.670588 0.670588 0.486275
1999.9935 -393.1994 354.4000 0.72549 0.72549 0.556863
2000.0256 -340.8020 360.2000 0.72549 0.72549 0.560784
345.2000 -1019.4000 -0.0075 0.145098 0.109804 0.109804
1455.6000 -1833.1000 -0.0129 0.14902 0.121569 0.121569
1999.9788 -568.8972 1089.0000 0.666667 0.666667 0.47451
2000.0293 -160.0011 1498.0000 0.65098 0.65098 0.458824
388.9000 -1170.5000 0.0117 0.12549 0.0941176 0.0941176
1999.9875 -282.8992 1219.0000 0.666667 0.666667 0.482353
1999.9901 -495.9989 1177.4000 0.658824 0.658824 0.470588
986.6000 -15.9000 0.0180 0.235294 0.203922 0.203922
884.3000 -1289.7000 -0.0157 0.12549 0.0901961 0.0901961
1999.9550 -425.6956 527.1000 0.705882 0.705882 0.541176
47.7000 -1587.5000 -0.0250 0.160784 0.12549 0.12549
1468.7933 -1999.9847 1220.4000 0.631373 0.631373 0.419608
1999.9994 -490.0999 1264.4000 0.654902 0.654902 0.466667
1877.6932 -1999.9928 881.7000 0.65098 0.65098 0.454902
1456.1000 -861.8000 0.0343 0.12549 0.0941176 0.0941176
1999.9865 -816.6974 804.6000 0.67451 0.67451 0.490196
2000.0112 -868.1023 800.2000 0.670588 0.670588 0.490196
2000.0031 -105.5001 1866.5000 0.631373 0.631373 0.431373
155.6000 -1401.3000 0.0096 0.156863 0.12549 0.12549
154.6993 -1999.9873 53.4000 0.619608 0.619608 0.415686
1999.9508 -158.8982 682.2000 0.705882 0.705882 0.541176
1999.9753 -435.5975 1180.0000 0.666667 0.666667 0.47451
1999.9927 -469.0992 896.0000 0.682353 0.682353 0.501961
1144.4099 -2000.0198 508.6000 0.639216 0.639216 0.439216
2000.0070 -154.8002 574.9000 0.713725 0.713725 0.54902
1519.3000 -345.0000 0.0287 0.12549 0.0901961 0.0901961
1361.0005 -2000.0011 1059.2000 0.635294 0.635294 0.427451
2000.0035 -444.7004 1138.2000 0.666667 0.666667 0.482353
1866.3000 -252.7000 0.0004 0.14902 0.121569 0.121569
1999.9893 -430.1989 103.3000 0.741176 0.741176 0.580392
391.3000 -1714.9000 0.0133 0.12549 0.0941176 0.0941176
1921.0000 -170.4000 0.0090 0.168627 0.141176 0.141176
2000.0427 -329.7033 1065.9000 0.67451 0.67451 0.490196
1577.6771 -1999.9751 440.9000 0.654902 0.654902 0.466667
1999.9969 -61.7000 722.0000 0.705882 0.705882 0.541176
1999.9780 -99.1995 1064.7000 0.686275 0.686275 0.505882
2000.0132 -22.0001 1323.0000 0.670588 0.670588 0.486275
1999.9980 -621.5997 879.4000 0.67451 0.67451 0.494118
1257.1000 -172.6000 -0.0188 0.160784 0.12549 0.12549
1999.9980 -67.3000 1349.0000 0.666667 0.666667 0.482353
2000.0009 -736.1002 867.1000 0.670588 0.670588 0.490196
1999.9777 -514.1973 839.8000 0.686275 0.686275 0.505882
189.5008 -2000.0126 89.5000 0.619608 0.619608 0.415686
929.0000 -1338.3000 0.0050 0.12549 0.0941176 0.0941176
1999.9952 -594.9994 1286.5000 0.65098 0.65098 0.454902
902.9000 -96.5000 -0.0007 0.196078 0.160784 0.160784
1999.9884 -318.1992 893.8000 0.690196 0.690196 0.509804
175.0000 -847.4000 -0.0017 0.192157 0.160784 0.160784
1591.3188 -2000.0386 1313.5999 0.635294 0.635294 0.427451
1634.6000 -1429.1000 0.0445 0.12549 0.0941176 0.0941176
2000.0448 -431.5045 1174.4000 0.666667 0.666667 0.47451
2000.0101 -403.4009 1485.8000 0.647059 0.647059 0.45098
2000.0201 -293.0014 1246.2000 0.666667 0.666667 0.47451
2000.0020 -630.2003 831.3000 0.682353 0.682353 0.501961
2000.0211 -589.1029 1230.0000 0.65098 0.65098 0.466667
2000.0195 -261.1011 404.1000 0.72549 0.72549 0.560784
2000.0215 -231.8011 240.3000 0.737255 0.737255 0.576471
1999.9972 -300.7998 464.9000 0.721569 0.721569 0.54902
1125.5012 -2000.0018 170.2000 0.65098 0.65098 0.45098
139.5000 -1886.5000 0.0243 0.137255 0.101961 0.101961
2000.0006 -176.7000 1779.9000 0.635294 0.635294 0.435294
2000.0015 -207.8001 629.4000 0.709804 0.709804 0.541176
1999.9620 -720.6936 1232.1000 0.65098 0.65098 0.454902
1306.1000 -898.3000 -0.0007 0.12549 0.0941176 0.0941176
1819.8044 -2000.0029 111.2000 0.67451 0.67451 0.490196
2000.0098 -207.1005 77.9000 0.745098 0.745098 0.596078
1999.9965 -487.3996 1325.7000 0.65098 0.65098 0.458824
2000.0243 -880.6050 1054.3000 0.654902 0.654902 0.466667
1396.5000 -724.0000 0.0362 0.12549 0.0941176 0.0941176
1999.9799 -450.0979 1132.9000 0.666667 0.666667 0.482353
934.5000 -1081.0000 -0.0096 0.12549 0.0941176 0.0941176
257.2000 -458.4000 0.0168 0.184314 0.156863 0.156863
361.6000 -1882.4000 0.0009 0.137255 0.105882 0.105882
1999.9652 -80.8993 1318.9000 0.670588 0.670588 0.486275
1999.9967 -605.0995 972.5000 0.670588 0.670588 0.490196
1167.8032 -2000.0111 1142.0000 0.619608 0.619608 0.415686
1999.9927 -402.7993 607.0000 0.705882 0.705882 0.529412
2000.0187 -331.0014 247.3000 0.729412 0.729412 0.568627
2000.0190 -209.1009 340.7000 0.729412 0.729412 0.564706
1999.9871 -774.7977 792.0000 0.67451 0.67451 0.494118
1359.5044 -2000.0095 964.8000 0.635294 0.635294 0.431373
469.6000 -8.1000 -0.0139 0.254902 0.227451 0.227451
312.8000 -1752.1000 0.0307 0.12549 0.0941176 0.0941176
2000.0120 -174.8005 768.4000 0.701961 0.701961 0.529412
1999.9967 -92.9999 406.5000 0.729412 0.729412 0.564706
2000.0135 -291.2009 1523.5000 0.647059 0.647059 0.45098
750.2010 -2000.0043 504.5000 0.631373 0.631373 0.419608
2000.0258 -395.9023 1298.7000 0.654902 0.654902 0.470588
800.0000 -1388.8000 -0.0036 0.12549 0.0941176 0.0941176
2000.0050 -675.0008 1055.2000 0.666667 0.666667 0.47451
2000.0060 -502.4007 1349.8000 0.65098 0.65098 0.454902
1786.3014 -2000.0020 1118.7000 0.647059 0.647059 0.439216
1418.7000 -622.1000 -0.0134 0.12549 0.0941176 0.0941176
1597.8000 -1667.8000 -0.0036 0.12549 0.0941176 0.0941176
113.9000 -1513.5000 0.0031 0.156863 0.121569 0.121569
2000.0017 -64.0000 84.0000 0.74902 0.74902 0.6
2000.0009 -143.5000 856.1000 0.694118 0.694118 0.52549
1133.9048 -2000.0164 1055.0000 0.627451 0.627451 0.415686
1999.9991 -597.9999 854.4000 0.682353 0.682353 0.501961
1999.9698 -32.7997 275.2000 0.741176 0.741176 0.580392
958.7959 -1999.9912 272.1000 0.639216 0.639216 0.439216
218.3000 -652.9000 0.0045 0.196078 0.160784 0.160784
2000.0013 -107.8000 19.1000 0.756863 0.756863 0.603922
1093.4000 -1616.1000 -0.0388 0.12549 0.0941176 0.0941176
1999.9810 -272.3988 681.7000 0.705882 0.705882 0.529412
1645.3959 -1999.9904 1607.3000 0.627451 0.627451 0.415686
1809.5881 -1999.9843 1091.9000 0.647059 0.647059 0.447059
2000.0040 -802.0007 771.3000 0.67451 0.67451 0.494118
2000.0116 -550.5015 1287.7000 0.65098 0.65098 0.458824
2000.0201 -422.7020 621.0000 0.705882 0.705882 0.529412
1420.0159 -2000.0164 111.2000 0.666667 0.666667 0.470588
1731.1097 -2000.0134 1031.2000 0.647059 0.647059 0.447059
1999.9908 -26.2999 766.6000 0.705882 0.705882 0.541176
1156.0000 -1356.6000 0.0028 0.12549 0.0941176 0.0941176
1779.8920 -1999.9843 1590.2000 0.631373 0.631373 0.419608
1493.0000 -461.8000 -0.0258 0.12549 0.0941176 0.0941176
2000.0320 -373.0027 304.2000 0.72549 0.72549 0.560784
1999.9980 -1771.1991 77.4000 0.690196 0.690196 0.505882
1567.9912 -1999.9918 192.8000 0.666667 0.666667 0.470588
1128.4980 -1999.9956 583.9000 0.635294 0.635294 0.435294
2000.0005 -195.2000 159.8000 0.745098 0.745098 0.584314
2000.0527 -295.8036 899.6999 0.690196 0.690196 0.509804
1789.0000 -1971.3000 -0.0008 0.180392 0.145098 0.145098
1489.1000 -372.3000 0.0057 0.12549 0.0941176 0.0941176
1319.4000 -1884.5000 -0.0144 0.160784 0.12549 0.12549
2000.0099 -517.7012 1129.4000 0.666667 0.666667 0.47451
1847.5000 -20.3000 -0.0262 0.203922 0.176471 0.176471
976.2978 -1999.9921 807.1000 0.627451 0.627451 0.415686
1345.3000 -1629.9000 -0.0170 0.12549 0.0941176 0.0941176
2000.0225 -148.1007 836.4000 0.694118 0.694118 0.52549
1999.9919 -558.9990 809.9000 0.686275 0.686275 0.505882
2000.0011 -180.2000 71.4000 0.74902 0.74902 0.596078
12.6000 -1559.4000 -0.0013 0.164706 0.129412 0.129412
2000.0101 -280.8006 1575.8000 0.639216 0.639216 0.45098
1999.9796 -1.4000 1844.0000 0.635294 0.635294 0.435294
907.0043 -2000.0190 855.7000 0.619608 0.619608 0.415686
1999.9988 -411.2999 976.6000 0.682353 0.682353 0.494118
2000.0006 -954.9001 793.6000 0.670588 0.670588 0.486275
1999.9945 -378.0995 372.1000 0.721569 0.721569 0.556863
2000.0201 -231.5011 1304.8000 0.658824 0.658824 0.47451
2000.0420 -263.1026 1020.1000 0.682353 0.682353 0.501961
157.4000 -978.4000 0.0126 0.184314 0.14902 0.14902
1417.7819 -1999.9731 586.8000 0.65098 0.65098 0.45098
373.4949 -1999.9684 91.2000 0.631373 0.631373 0.427451
1999.9615 -119.2990 917.4000 0.690196 0.690196 0.521569
1999.9930 -236.4996 913.9000 0.690196 0.690196 0.509804
1999.9756 -145.1992 1681.5000 0.639216 0.639216 0.447059
634.7043 -2000.0129 26.9000 0.639216 0.639216 0.435294
1705.3840 -1999.9833 591.5000 0.654902 0.654902 0.458824
2000.0034 -628.9005 758.5000 0.686275 0.686275 0.505882
1999.9932 -414.7994 951.9000 0.682353 0.682353 0.501961
1999.9983 -62.1000 1392.7000 0.666667 0.666667 0.47451
528.3002 -2000.0015 441.8000 0.619608 0.619608 0.415686
1473.4043 -2000.0094 1186.8000 0.635294 0.635294 0.427451
1320.6000 -2000.0000 833.2000 0.635294 0.635294 0.435294
1523.0000 -275.7000 -0.0301 0.141176 0.105882 0.105882
1701.0052 -2000.0070 930.8000 0.65098 0.65098 0.447059
2000.0093 -177.2004 350.6000 0.729412 0.729412 0.568627
207.7000 -1470.3000 -0.0109 0.145098 0.109804 0.109804
1999.9774 -126.0993 1436.2000 0.654902 0.654902 0.470588
1831.1112 -2000.0135 1004.1000 0.65098 0.65098 0.45098
1905.5081 -2000.0052 221.1000 0.67451 0.67451 0.490196
1999.9987 -53.3000 1275.0000 0.670588 0.670588 0.490196
1999.9856 -612.6980 884.6000 0.67451 0.67451 0.494118
1398.2000 -578.6000 -0.0060 0.12549 0.0941176 0.0941176
2000.0114 -47.8001 937.4000 0.694118 0.694118 0.521569
1286.3999 -1502.6001 -0.0587 0.12549 0.0941176 0.0941176
753.8000 -58.4000 -0.0007 0.219608 0.192157 0.192157
1999.9987 -4.8000 1132.3000 0.686275 0.686275 0.505882
1403.7000 -732.0000 0.0024 0.12549 0.0941176 0.0941176
1999.9806 -158.5993 1190.3000 0.670588 0.670588 0.490196
1999.9850 -640.6978 914.7000 0.670588 0.670588 0.490196
2000.0048 -403.9004 1018.6000 0.67451 0.67451 0.490196
774.2000 -1107.4000 -0.0062 0.12549 0.0941176 0.0941176
1999.9937 -193.2997 566.4000 0.713725 0.713725 0.545098
1979.8000 -297.8000 0.0268 0.196078 0.160784 0.160784
1128.9906 -1999.9803 534.4000 0.639216 0.639216 0.435294
1999.9877 -145.6996 304.3000 0.737255 0.737255 0.576471
2000.0076 -214.7004 1492.6000 0.65098 0.65098 0.458824
1999.9875 -409.8988 1512.8000 0.639216 0.639216 0.447059
984.0000 -1692.0000 -0.0141 0.12549 0.0941176 0.0941176
1999.9851 -434.4985 467.0000 0.709804 0.709804 0.545098
733.3000 -1295.8000 -0.0024 0.12549 0.0941176 0.0941176
2000.0107 -930.2023 941.3000 0.658824 0.658824 0.470588
1239.4969 -1999.9950 430.3000 0.65098 0.65098 0.45098
1999.9838 -1689.3933 185.3000 0.686275 0.686275 0.501961
2000.0184 -481.2021 1264.0000 0.654902 0.654902 0.466667
1999.9884 -292.1992 603.6000 0.705882 0.705882 0.541176
1063.3051 -2000.0139 725.9000 0.635294 0.635294 0.427451
1365.6000 -580.5000 0.0008 0.12549 0.0941176 0.0941176
471.0000 -552.3000 -0.0019 0.12549 0.0941176 0.0941176
1841.3983 -1999.9987 399.8000 0.670588 0.670588 0.47451
1370.6975 -1999.9926 1348.1000 0.619608 0.619608 0.415686
1361.1993 -1999.9993 235.2000 0.654902 0.654902 0.458824
573.3007 -2000.0049 497.8000 0.619608 0.619608 0.415686
1085.0000 -387.9000 -0.0057 0.12549 0.0941176 0.0941176
2000.0055 -1233.2017 727.9000 0.666667 0.666667 0.47451
2000.0364 -1067.9092 763.7000 0.670588 0.670588 0.482353
1791.2875 -1999.9913 138.9000 0.67451 0.67451 0.490196
1999.9954 -236.2997 1091.1000 0.67451 0.67451 0.494118
1052.5833 -1999.9644 417.6001 0.639216 0.639216 0.439216
1553.7047 -2000.0089 1149.8000 0.635294 0.635294 0.431373
1999.9863 -798.9974 1047.0000 0.658824 0.658824 0.470588
1999.9854 -876.5970 1060.5000 0.654902 0.654902 0.466667
1896.0000 -1738.2000 0.0131 0.14902 0.121569 0.121569
1999.9867 -175.5995 1372.0000 0.658824 0.658824 0.470588
2000.0028 -64.3000 388.4000 0.729412 0.729412 0.568627
1769.7703 -1999.9799 77.8000 0.67451 0.67451 0.490196
1999.9976 -374.0998 1307.3000 0.654902 0.654902 0.470588
1999.9885 -345.5991 1093.5000 0.670588 0.670588 0.490196
1847.1005 -2000.0004 588.1000 0.658824 0.658824 0.470588
2000.0028 -154.7001 1492.2000 0.65098 0.65098 0.466667
310.7000 -1166.8000 0.0092 0.14902 0.121569 0.121569
1999.9772 -1739.7902 207.5000 0.682353 0.682353 0.494118
2000.0214 -871.3044 877.2000 0.670588 0.670588 0.482353
1484.6000 -1939.0000 0.0343 0.168627 0.137255 0.137255
1999.9955 -420.1996 844.0000 0.690196 0.690196 0.505882
311.7000 -152.3000 -0.0045 0.180392 0.14902 0.14902
634.5024 -2000.0112 375.8000 0.631373 0.631373 0.419608
1084.6989 -1999.9971 737.3000 0.635294 0.635294 0.427451
2000.0043 -28.6000 1314.2000 0.670588 0.670588 0.490196
2000.0063 -19.5000 657.8000 0.713725 0.713725 0.545098
1999.9841 -204.3993 505.3000 0.721569 0.721569 0.556863
1264.2050 -2000.0068 241.4000 0.65098 0.65098 0.454902
847.1000 -1374.0000 -0.0167 0.12549 0.0941176 0.0941176
1999.9727 -123.4992 1394.8000 0.658824 0.658824 0.470588
893.2000 -1316.7000 0.0058 0.12549 0.0941176 0.0941176
571.4000 -1093.1000 -0.0097 0.12549 0.0941176 0.0941176
2000.0098 -402.6009 78.6000 0.741176 0.741176 0.580392
1999.9978 -714.3996 834.9000 0.67451 0.67451 0.490196
1813.3130 -2000.0092 191.8000 0.670588 0.670588 0.486275
2000.0164 -50.8002 1602.4000 0.65098 0.65098 0.454902
1999.9861 -388.1988 1387.8000 0.65098 0.65098 0.458824
1101.3000 -199.8000 -0.0431 0.145098 0.113725 0.113725
564.0000 -769.1000 -0.0046 0.12549 0.0941176 0.0941176
1999.9948 -25.3000 177.6000 0.745098 0.745098 0.596078
874.4000 -1457.0000 0.0324 0.12549 0.0901961 0.0901961
1999.9775 -9.2999 1564.4000 0.65098 0.65098 0.466667
2000.0201 -241.2011 1374.8000 0.654902 0.654902 0.470588
2000.0342 -217.4017 1177.9000 0.670588 0.670588 0.490196
2000.0002 -153.6000 139.9000 0.745098 0.745098 0.592157
1999.9834 -10.5000 296.0000 0.741176 0.741176 0.580392
1999.9893 -349.2991 636.0000 0.705882 0.705882 0.529412
1999.9608 -90.5992 664.9000 0.709804 0.709804 0.545098
2000.0117 -649.5018 958.5000 0.670588 0.670588 0.486275
1050.1964 -1999.9899 706.5000 0.635294 0.635294 0.427451
1267.0942 -1999.9819 1219.6000 0.627451 0.627451 0.415686
1105.4000 -1163.2000 -0.0392 0.12549 0.0941176 0.0941176
1999.9897 -287.5993 116.8000 0.745098 0.745098 0.584314
1999.9854 -214.6993 1542.5000 0.647059 0.647059 0.45098
1173.6000 -1760.6000 0.0012 0.141176 0.105882 0.105882
2000.0118 -356.1010 182.1000 0.737255 0.737255 0.576471
1999.9919 -165.1997 63.3000 0.74902 0.74902 0.6
1999.9812 -9.9999 1351.8000 0.670588 0.670588 0.486275
953.6000 -463.9000 -0.0128 0.12549 0.0941176 0.0941176
2000.0114 -440.6012 75.9000 0.741176 0.741176 0.580392
1999.9822 -267.9989 1472.0000 0.65098 0.65098 0.454902
2000.0249 -679.5039 1129.9000 0.654902 0.654902 0.470588
1999.9648 -128.1990 327.2000 0.737255 0.737255 0.576471
2000.0111 -377.2010 1205.6000 0.666667 0.666667 0.47451
1999.9995 -867.9999 787.5000 0.670588 0.670588 0.490196
1999.9888 -292.8992 1243.2000 0.666667 0.666667 0.482353
2000.0125 -841.2025 904.5000 0.670588 0.670588 0.482353
2000.0333 -406.3031 770.9000 0.690196 0.690196 0.513725
1999.9709 -119.9992 556.5000 0.721569 0.721569 0.54902
1999.9874 -98.9997 4.1000 0.756863 0.756863 0.603922
2000.0220 -683.8035 1036.1000 0.666667 0.666667 0.47451
2000.0026 -382.1002 728.4000 0.694118 0.694118 0.52549
2000.0135 -696.9022 999.5000 0.666667 0.666667 0.482353
606.3046 -2000.0211 331.7000 0.631373 0.631373 0.427451
85.3000 -610.0000 0.0015 0.219608 0.192157 0.192157
1999.9980 -108.2999 147.3000 0.745098 0.745098 0.592157
1999.9753 -430.3975 332.9000 0.72549 0.72549 0.556863
464.0000 -1101.1000 0.0048 0.12549 0.0941176 0.0941176
2000.0114 -949.8025 988.0000 0.654902 0.654902 0.466667
934.7000 -1287.2000 0.0190 0.12549 0.0941176 0.0941176
1984.4000 -410.6000 0.0352 0.196078 0.160784 0.160784
1999.9991 -91.8000 50.8000 0.756863 0.756863 0.6
1999.9637 -1047.5909 865.3000 0.658824 0.658824 0.470588
429.3045 -2000.0406 385.5000 0.619608 0.619608 0.415686
1999.9915 -268.5995 630.9000 0.705882 0.705882 0.541176
1999.9758 -871.5951 1081.2000 0.65098 0.65098 0.458824
2000.0085 -274.7005 1426.4000 0.65098 0.65098 0.458824
2000.0472 -332.7036 123.5000 0.741176 0.741176 0.580392
635.9000 -986.4000 0.0454 0.12549 0.0901961 0.0901961
1999.9907 -56.3999 1030.2000 0.690196 0.690196 0.509804
2000.0134 -279.0008 1621.4000 0.635294 0.635294 0.447059
1999.9987 0.0000 1138.0000 0.686275 0.686275 0.505882
2000.0016 -453.1002 836.6000 0.690196 0.690196 0.505882
1310.5934 -1999.9851 935.1000 0.635294 0.635294 0.431373
2000.0112 -587.4015 1193.4000 0.654902 0.654902 0.470588
1999.9692 -445.6968 932.1000 0.682353 0.682353 0.501961
1999.9965 -61.6999 505.6000 0.72549 0.72549 0.560784
1639.1000 -1486.5000 0.0305 0.12549 0.0941176 0.0941176
1999.9965 -118.2999 606.0000 0.713725 0.713725 0.545098
1269.5000 -49.3000 0.0087 0.211765 0.180392 0.180392
37.5000 -817.5000 -0.0070 0.215686 0.180392 0.180392
1621.6000 -142.2000 0.0254 0.168627 0.141176 0.141176
1602.1135 -2000.0175 713.8000 0.65098 0.65098 0.45098
1927.4000 -180.5000 -0.0077 0.164706 0.137255 0.137255
2000.0087 -147.1003 287.2000 0.737255 0.737255 0.580392
468.5000 -1160.5000 0.0017 0.12549 0.0941176 0.0941176
1999.9893 -659.7983 1112.7000 0.658824 0.658824 0.470588
2000.0222 -397.7020 452.5000 0.713725 0.713725 0.545098
1999.9991 -55.9000 841.0000 0.701961 0.701961 0.529412
1496.2000 -1279.2000 0.0126 0.12549 0.0941176 0.0941176
1999.9812 -117.6995 564.5000 0.721569 0.721569 0.54902
1589.8000 -1548.8000 0.0003 0.12549 0.0941176 0.0941176
1341.5773 -1999.9738 139.0000 0.658824 0.658824 0.466667
788.7965 -1999.9897 301.4000 0.635294 0.635294 0.435294
658.7000 -1233.8000 -0.0084 0.12549 0.0941176 0.0941176
2000.0123 -680.4019 897.8000 0.670588 0.670588 0.490196
2000.0228 -505.9027 1420.2000 0.647059 0.647059 0.45098
1269.3000 -713.4000 -0.0106 0.12549 0.0941176 0.0941176
1999.9832 -647.2975 1260.6000 0.65098 0.65098 0.454902
1999.9709 -30.0998 1789.9000 0.635294 0.635294 0.439216
1757.4000 -1656.7000 0.0085 0.12549 0.0941176 0.0941176
2000.0081 -250.6005 1553.5000 0.647059 0.647059 0.45098
1051.7000 -223.4000 -0.0296 0.145098 0.109804 0.109804
1858.5857 -1999.9852 825.2000 0.654902 0.654902 0.454902
2000.0048 -1738.9020 43.3000 0.690196 0.690196 0.509804
82.0000 -790.0000 -0.0060 0.211765 0.180392 0.180392
2000.0009 -40.6000 1512.0000 0.654902 0.654902 0.470588
1667.8000 -1296.1000 0.0007 0.12549 0.0941176 0.0941176
1999.9833 -211.9992 438.8000 0.72549 0.72549 0.560784
1241.9984 -1999.9958 965.1000 0.631373 0.631373 0.427451
1999.9668 -22.7998 1437.3000 0.658824 0.658824 0.47451
611.7000 -1107.8000 -0.0242 0.12549 0.0941176 0.0941176
2000.0216 -899.8046 946.5000 0.658824 0.658824 0.470588
2000.0172 -109.4004 1480.2000 0.654902 0.654902 0.466667
1999.9843 -336.6988 369.5000 0.72549 0.72549 0.560784
1999.9677 -474.3965 796.6000 0.690196 0.690196 0.509804
328.4000 -1850.8000 0.0101 0.137255 0.101961 0.101961
1800.5000 -1900.5000 0.0157 0.160784 0.12549 0.12549
1999.9950 -416.3995 367.6000 0.721569 0.721569 0.556863
1653.0000 -2000.0000 466.0000 0.658824 0.658824 0.466667
1563.2980 -1999.9979 389.5000 0.658824 0.658824 0.466667
1302.8896 -1999.9882 62.1000 0.658824 0.658824 0.470588
115.9000 -1412.8000 -0.0108 0.160784 0.12549 0.12549
1999.9891 -549.0986 1019.9000 0.670588 0.670588 0.486275
1343.3000 -890.1000 -0.0234 0.12549 0.0941176 0.0941176
1999.9520 -326.0964 518.8001 0.709804 0.709804 0.545098
2000.0229 -134.3007 469.2000 0.72549 0.72549 0.560784
2000.0176 -104.0004 334.1000 0.737255 0.737255 0.576471
1999.9817 -432.4982 263.3000 0.72549 0.72549 0.560784
78.4000 -520.7000 0.0122 0.231373 0.2 0.2
2000.0006 -358.8000 759.8000 0.694118 0.694118 0.521569
385.3000 -706.4000 -0.0133 0.141176 0.105882 0.105882
1999.9841 -272.7990 1522.2000 0.647059 0.647059 0.45098
1999.9985 -21.9000 1370.6000 0.666667 0.666667 0.482353
1970.2000 -1774.5000 0.0092 0.168627 0.137255 0.137255
2000.0099 -632.0014 1120.8000 0.658824 0.658824 0.470588
1648.7964 -1999.9945 1042.1000 0.639216 0.639216 0.435294
1999.9856 -353.5988 831.5000 0.690196 0.690196 0.513725
1518.1104 -2000.0138 629.5000 0.65098 0.65098 0.45098
1999.9720 -367.1977 886.8000 0.686275 0.686275 0.505882
2000.0231 -938.4051 919.2000 0.658824 0.658824 0.470588
1068.1992 -1999.9983 448.7000 0.639216 0.639216 0.439216
2000.0403 -1095.0105 861.5000 0.658824 0.658824 0.470588
444.3000 -1115.6000 -0.0209 0.12549 0.0941176 0.0941176
918.2000 -301.9000 -0.0102 0.12549 0.0941176 0.0941176
1999.9834 -208.0992 1452.0000 0.65098 0.65098 0.466667
2000.0013 -405.1001 185.2000 0.729412 0.729412 0.568627
63.5000 -1235.1000 0.0175 0.180392 0.145098 0.145098
636.5000 -1190.4000 -0.0112 0.12549 0.0941176 0.0941176
2000.0176 -13.0001 739.3000 0.705882 0.705882 0.545098
2000.0050 -394.5005 979.0000 0.682353 0.682353 0.494118
1999.9724 -433.4972 194.6000 0.729412 0.729412 0.568627
1999.9841 -796.3970 1006.1000 0.658824 0.658824 0.470588
973.5029 -2000.0062 298.0000 0.639216 0.639216 0.439216
1999.9760 -117.8993 1714.1000 0.635294 0.635294 0.447059
2000.0135 -1895.0063 46.9000 0.690196 0.690196 0.505882
1999.9767 -110.1994 1223.1000 0.670588 0.670588 0.490196
2000.0039 -718.7007 1278.3000 0.647059 0.647059 0.45098
1999.9918 -75.9998 326.3000 0.737255 0.737255 0.580392
1999.9751 -210.9988 962.2000 0.690196 0.690196 0.505882
2000.0085 -236.8005 794.0000 0.694118 0.694118 0.52549
1012.9000 -1364.8000 0.0032 0.12549 0.0941176 0.0941176
1438.0000 -420.1000 0.0269 0.12549 0.0941176 0.0941176
1667.0048 -2000.0061 833.8000 0.65098 0.65098 0.45098
1556.6167 -2000.0144 68.1000 0.670588 0.670588 0.482353
1999.9702 -70.3995 978.4000 0.690196 0.690196 0.513725
531.2040 -2000.0223 313.9000 0.631373 0.631373 0.419608
2000.0093 -373.2008 1046.0000 0.67451 0.67451 0.490196
728.7000 -930.4000 -0.0143 0.12549 0.0941176 0.0941176
1999.9976 -408.0998 1355.1000 0.65098 0.65098 0.458824
1506.5000 -577.8000 0.0237 0.12549 0.0941176 0.0941176
1829.4945 -1999.9901 1567.5000 0.635294 0.635294 0.427451
1999.9564 -742.7924 1150.0001 0.65098 0.65098 0.466667
1999.9921 -124.5998 982.8000 0.690196 0.690196 0.509804
1529.7000 -929.5000 -0.0066 0.12549 0.0941176 0.0941176
2000.0156 -502.3018 1479.7000 0.639216 0.639216 0.447059
2000.0135 -858.3027 1051.2000 0.654902 0.654902 0.466667
1976.6000 -1829.4000 0.0312 0.176471 0.141176 0.141176
2000.0374 -280.9024 855.7000 0.690196 0.690196 0.513725
1693.0034 -2000.0027 130.8000 0.670588 0.670588 0.482353
1595.1881 -1999.9880 355.1000 0.658824 0.658824 0.470588
1999.9998 -784.2000 840.2000 0.670588 0.670588 0.490196
1338.0901 -1999.9720 1238.3000 0.627451 0.627451 0.415686
2000.0217 -1696.0090 160.0000 0.690196 0.690196 0.505882
2000.0106 -389.0010 770.9000 0.690196 0.690196 0.521569
1999.9930 -370.7994 125.5000 0.741176 0.741176 0.580392
2000.0055 -16.9000 914.3000 0.694118 0.694118 0.52549
1255.7000 -730.5000 -0.0084 0.12549 0.0941176 0.0941176
2000.0094 -140.2003 767.3000 0.705882 0.705882 0.529412
1267.8000 -519.7000 -0.0080 0.12549 0.0941176 0.0941176
319.8000 -97.1000 -0.0003 0.215686 0.180392 0.180392
800.8000 -1218.5000 -0.0032 0.12549 0.0941176 0.0941176
794.3000 -1316.3000 -0.0055 0.12549 0.0941176 0.0941176
90.3000 -1181.9000 -0.0104 0.180392 0.145098 0.145098
1999.9745 -120.7993 1757.6000 0.635294 0.635294 0.439216
1999.9626 -293.0975 1196.1000 0.670588 0.670588 0.486275
1118.7067 -2000.0189 838.9000 0.631373 0.631373 0.427451
2000.0092 -259.7005 899.4000 0.690196 0.690196 0.509804
71.4000 -700.0000 0.0358 0.215686 0.184314 0.184314
1104.3000 -276.0000 -0.0062 0.129412 0.101961 0.101961
1362.0000 -1472.4000 -0.0119 0.12549 0.0941176 0.0941176
1477.6000 -487.1000 -0.0203 0.12549 0.0941176 0.0941176
2000.0420 -246.3024 1197.5000 0.670588 0.670588 0.486275
909.1068 -2000.0221 596.8000 0.631373 0.631373 0.427451
1999.9808 -236.0990 580.3000 0.709804 0.709804 0.545098
1484.3000 -1399.2000 -0.0174 0.12549 0.0941176 0.0941176
364.8000 -1085.4000 0.0204 0.137255 0.105882 0.105882
1999.9805 -396.8982 496.6000 0.709804 0.709804 0.545098
89.8000 -894.9000 -0.0484 0.2 0.168627 0.168627
580.5000 -14.6000 -0.0158 0.25098 0.215686 0.215686
2000.0221 -152.6008 1340.7000 0.666667 0.666667 0.47451
1461.6000 -1565.9000 0.0023 0.12549 0.0941176 0.0941176
1562.8801 -1999.9784 410.8000 0.654902 0.654902 0.466667
1798.2000 -1708.7000 -0.0211 0.12549 0.0941176 0.0941176
2000.0007 -247.5000 1333.5000 0.658824 0.658824 0.470588
1999.9496 -629.4926 1184.4001 0.654902 0.654902 0.466667
2000.0078 -403.3007 150.6000 0.737255 0.737255 0.576471
1999.9708 -288.5981 1521.3000 0.647059 0.647059 0.45098
109.2000 -438.1000 0.0068 0.231373 0.2 0.2
386.4000 -99.2000 0.0109 0.211765 0.180392 0.180392
722.0000 -1000.2000 -0.0022 0.12549 0.0941176 0.0941176
1999.9927 -1009.6983 858.8000 0.666667 0.666667 0.47451
1999.9740 -770.0954 810.3000 0.67451 0.67451 0.490196
2000.0056 -13.7000 849.3000 0.705882 0.705882 0.529412
1740.1935 -1999.9912 1004.4000 0.647059 0.647059 0.447059
2000.0143 -510.4017 936.7000 0.67451 0.67451 0.494118
322.5012 -2000.0165 397.5000 0.615686 0.615686 0.411765
328.9996 -1999.9940 565.1000 0.615686 0.615686 0.403922
724.9960 -1999.9882 185.1000 0.635294 0.635294 0.435294
910.2000 -325.1000 -0.0198 0.12549 0.0901961 0.0901961
1671.5098 -2000.0077 134.5000 0.670588 0.670588 0.482353
981.4073 -2000.0317 1797.5000 0.615686 0.615686 0.4
1446.5000 -1858.5000 0.0007 0.160784 0.12549 0.12549
945.4974 -1999.9884 1950.6000 0.611765 0.611765 0.396078
1888.6075 -2000.0135 1655.8000 0.631373 0.631373 0.419608
1670.8956 -1999.9966 86.0000 0.670588 0.670588 0.486275
313.6974 -1999.9631 713.1000 0.615686 0.615686 0.403922
1465.2000 -1535.1000 0.0078 0.12549 0.0901961 0.0901961
372.1010 -2000.0117 1297.4000 0.611765 0.611765 0.396078
1210.3958 -1999.9871 1079.0000 0.627451 0.627451 0.415686
169.3006 -2000.0168 1020.9000 0.611765 0.611765 0.4
713.6022 -2000.0129 1780.4000 0.611765 0.611765 0.396078
1692.7035 -2000.0077 1587.6000 0.627451 0.627451 0.415686
73.3997 -1999.9830 1270.4000 0.603922 0.603922 0.392157
599.4980 -1999.9856 1307.4000 0.615686 0.615686 0.4
1186.2859 -1999.9758 391.7000 0.647059 0.647059 0.45098
237.5989 -1999.9800 666.7000 0.615686 0.615686 0.403922
1309.0116 -2000.0262 944.2000 0.635294 0.635294 0.431373
433.3979 -1999.9790 548.9000 0.615686 0.615686 0.411765
4.1000 -1999.9797 1321.1000 0.603922 0.603922 0.392157
1603.5820 -1999.9747 843.7000 0.647059 0.647059 0.447059
1563.0000 -164.5000 -0.0112 0.164706 0.137255 0.137255
695.5007 -2000.0042 1626.3000 0.611765 0.611765 0.396078
1348.1025 -2000.0077 1607.0000 0.615686 0.615686 0.403922
1567.7081 -2000.0104 660.6000 0.65098 0.65098 0.45098
1365.0000 -34.3000 -0.0265 0.215686 0.180392 0.180392
971.8063 -2000.0273 1097.4000 0.619608 0.619608 0.411765
1393.3005 -2000.0015 1503.7000 0.619608 0.619608 0.411765
557.8980 -1999.9840 865.2000 0.615686 0.615686 0.403922
124.1997 -1999.9886 1003.3000 0.611765 0.611765 0.4
535.1970 -1999.9750 1076.9000 0.615686 0.615686 0.4
1177.8000 -1566.2000 -0.0029 0.12549 0.0901961 0.0901961
854.6000 -367.7000 0.0146 0.12549 0.0941176 0.0941176
1877.3177 -2000.0106 62.7000 0.682353 0.682353 0.490196
1415.3846 -1999.9801 419.5000 0.65098 0.65098 0.454902
222.6994 -1999.9882 389.0000 0.615686 0.615686 0.411765
896.0000 -1096.3000 0.0000 0.12549 0.0941176 0.0941176
1548.7081 -2000.0078 208.7000 0.666667 0.666667 0.470588
864.0994 -1999.9969 1232.7000 0.615686 0.615686 0.403922
192.5999 -1999.9978 984.9000 0.611765 0.611765 0.4
1776.7002 -2000.0002 785.0000 0.65098 0.65098 0.454902
904.0051 -2000.0242 1426.3000 0.615686 0.615686 0.4
1334.9966 -1999.9894 1527.5000 0.619608 0.619608 0.411765
350.4000 -1299.0000 -0.0163 0.137255 0.105882 0.105882
934.6000 -1208.3000 -0.0075 0.12549 0.0941176 0.0941176
702.6033 -2000.0206 1174.8000 0.615686 0.615686 0.4
1613.8052 -2000.0089 1127.2000 0.635294 0.635294 0.435294
1828.9000 -1997.2000 -0.0173 0.180392 0.145098 0.145098
533.9982 -1999.9911 260.8000 0.631373 0.631373 0.427451
108.8001 -2000.0054 145.6000 0.615686 0.615686 0.411765
865.6017 -2000.0085 1202.8000 0.615686 0.615686 0.403922
1177.4000 -534.0000 0.0015 0.12549 0.0941176 0.0941176
1666.9000 -1883.1000 0.0114 0.160784 0.12549 0.12549
669.1975 -1999.9835 1003.2000 0.615686 0.615686 0.403922
127.8000 -899.4000 -0.0309 0.196078 0.160784 0.160784
1364.5000 -187.7000 -0.0116 0.156863 0.12549 0.12549
1671.9000 -1598.2000 -0.0093 0.12549 0.0941176 0.0941176
513.7000 -10.2000 0.0149 0.254902 0.227451 0.227451
247.2000 -341.3000 -0.0200 0.192157 0.160784 0.160784
1663.5000 -1703.8000 0.0093 0.12549 0.0941176 0.0941176
982.7000 -1138.0000 0.0445 0.12549 0.0941176 0.0941176
114.4998 -1999.9929 1799.0000 0.6 0.6 0.380392
1133.4000 -1813.8000 0.0153 0.14902 0.121569 0.121569
594.4059 -2000.0433 1909.2000 0.603922 0.603922 0.392157
459.2991 -1999.9915 870.1000 0.615686 0.615686 0.403922
421.3982 -1999.9807 1098.1000 0.615686 0.615686 0.4
152.7000 -1756.3000 0.0091 0.129412 0.101961 0.101961
452.0039 -2000.0383 864.0000 0.615686 0.615686 0.403922
192.4015 -2000.0348 267.4000 0.615686 0.615686 0.411765
177.5993 -1999.9827 1028.4000 0.611765 0.611765 0.4
1199.4095 -2000.0333 1641.8000 0.615686 0.615686 0.403922
783.5007 -2000.0037 1977.3000 0.603922 0.603922 0.392157
1888.9146 -2000.0122 556.0000 0.666667 0.666667 0.470588
958.6000 -339.6000 -0.0186 0.12549 0.0941176 0.0941176
1289.0000 -766.4000 -0.0159 0.12549 0.0941176 0.0941176
1553.6790 -1999.9688 818.9001 0.647059 0.647059 0.447059
362.9979 -1999.9746 1009.9000 0.615686 0.615686 0.4
472.1984 -1999.9850 1894.3000 0.6 0.6 0.384314
762.1998 -1999.9988 1625.9000 0.611765 0.611765 0.4
1375.9147 -2000.0216 506.7000 0.65098 0.65098 0.45098
106.2000 -1707.5000 -0.0223 0.145098 0.105882 0.105882
327.1009 -2000.0120 1199.9000 0.611765 0.611765 0.4
1547.5000 -829.4000 -0.0122 0.12549 0.0941176 0.0941176
1230.6000 -675.8000 0.0301 0.12549 0.0941176 0.0941176
1315.6049 -2000.0063 254.3000 0.654902 0.654902 0.458824
647.2996 -1999.9973 1825.9000 0.603922 0.603922 0.392157
1718.1071 -2000.0128 1367.0000 0.635294 0.635294 0.431373
200.0996 -1999.9919 1780.2000 0.6 0.6 0.380392
1293.1978 -1999.9963 541.9000 0.647059 0.647059 0.447059
316.1994 -1999.9915 1325.8000 0.611765 0.611765 0.396078
1157.6000 -1118.3000 0.0072 0.12549 0.0941176 0.0941176
4.9000 -1999.9979 1554.0000 0.6 0.6 0.384314
682.5000 -849.6000 -0.0302 0.12549 0.0941176 0.0941176
401.2009 -2000.0096 741.7000 0.615686 0.615686 0.403922
156.7000 -788.3000 -0.0081 0.2 0.164706 0.164706
1904.1016 -2000.0018 960.8000 0.65098 0.65098 0.45098
1518.6024 -2000.0065 1785.0000 0.615686 0.615686 0.403922
748.8990 -1999.9944 822.2000 0.619608 0.619608 0.411765
1543.3210 -2000.0198 169.4000 0.666667 0.666667 0.470588
631.8056 -2000.0192 145.6000 0.635294 0.635294 0.435294
1656.4819 -1999.9552 1718.4001 0.619608 0.619608 0.411765
1756.8904 -1999.9844 1290.7000 0.635294 0.635294 0.435294
642.1956 -1999.9698 1244.3000 0.615686 0.615686 0.4
1119.5905 -1999.9642 1590.8000 0.615686 0.615686 0.4
13.0000 -1784.3000 0.0339 0.14902 0.113725 0.113725
1515.3011 -2000.0034 1673.3000 0.619608 0.619608 0.411765
543.8007 -2000.0056 955.1000 0.615686 0.615686 0.403922
205.1000 -1636.6000 0.0162 0.129412 0.101961 0.101961
947.1046 -2000.0094 198.8000 0.647059 0.647059 0.447059
265.8004 -2000.0065 456.7000 0.615686 0.615686 0.411765
421.9021 -2000.0221 1967.0000 0.6 0.6 0.384314
675.3986 -1999.9911 1889.3000 0.603922 0.603922 0.392157
476.3989 -1999.9901 904.3000 0.615686 0.615686 0.403922
391.5000 -1025.1000 -0.0091 0.12549 0.0941176 0.0941176
1662.9000 -78.2000 -0.0132 0.184314 0.156863 0.156863
863.0994 -1999.9968 1024.9000 0.615686 0.615686 0.411765
687.3000 -955.1000 0.0042 0.12549 0.0941176 0.0941176
1636.4998 -1999.9994 1776.6000 0.619608 0.619608 0.411765
261.8000 -1321.4000 -0.0150 0.145098 0.109804 0.109804
703.1043 -2000.0267 1950.2000 0.603922 0.603922 0.392157
457.7027 -2000.0186 290.7000 0.627451 0.627451 0.415686
1690.0070 -2000.0088 840.3000 0.65098 0.65098 0.45098
221.1986 -1999.9700 1678.2000 0.6 0.6 0.384314
793.4026 -2000.0142 1561.5000 0.615686 0.615686 0.4
1819.6000 -1682.0000 -0.0068 0.129412 0.101961 0.101961
1070.7019 -2000.0076 1488.2000 0.615686 0.615686 0.403922
1133.3052 -2000.0192 1939.2000 0.615686 0.615686 0.4
621.1000 -929.8000 0.0100 0.12549 0.0941176 0.0941176
1865.5000 -1644.2000 -0.0411 0.141176 0.105882 0.105882
1292.1000 -1111.4000 0.0195 0.12549 0.0941176 0.0941176
1588.5179 -2000.0306 1082.1000 0.635294 0.635294 0.435294
1198.0015 -2000.0054 1730.7000 0.615686 0.615686 0.4
756.4008 -2000.0046 1413.2000 0.615686 0.615686 0.4
553.0993 -1999.9941 1958.2000 0.603922 0.603922 0.384314
829.3983 -1999.9910 1953.5000 0.611765 0.611765 0.392157
18.3000 -2000.0056 988.3000 0.611765 0.611765 0.396078
209.6999 -1999.9980 792.7000 0.615686 0.615686 0.4
503.1053 -2000.0461 1122.4999 0.615686 0.615686 0.4
126.2004 -2000.0140 337.4000 0.615686 0.615686 0.411765
924.2000 -2000.0000 1473.0000 0.615686 0.615686 0.4
1273.0027 -2000.0070 1027.7000 0.631373 0.631373 0.419608
349.8003 -2000.0038 1337.5000 0.611765 0.611765 0.396078
1012.0955 -1999.9834 909.6000 0.627451 0.627451 0.415686
90.4001 -2000.0065 670.8000 0.615686 0.615686 0.4
248.2988 -1999.9772 1939.5000 0.6 0.6 0.380392
1125.6958 -1999.9841 1509.4000 0.615686 0.615686 0.403922
660.2000 -1110.3000 -0.0151 0.12549 0.0941176 0.0941176
1796.6125 -2000.0128 706.5000 0.654902 0.654902 0.458824
1374.2000 -914.8000 -0.0038 0.12549 0.0941176 0.0941176
1259.4025 -2000.0084 1782.1000 0.615686 0.615686 0.4
405.0986 -1999.9849 879.8000 0.615686 0.615686 0.4
476.7006 -2000.0051 1220.8000 0.615686 0.615686 0.4
1343.6000 -676.2000 0.0064 0.12549 0.0941176 0.0941176
1014.2000 -69.4000 -0.0162 0.203922 0.176471 0.176471
1042.6000 -1450.0000 0.0153 0.12549 0.0941176 0.0941176
826.1000 -21.0000 0.0169 0.235294 0.203922 0.203922
481.9995 -1999.9962 406.6000 0.619608 0.619608 0.415686
1391.3999 -1812.2001 -0.0511 0.145098 0.113725 0.113725
554.3975 -1999.9806 977.6000 0.615686 0.615686 0.403922
568.5003 -2000.0016 452.0000 0.627451 0.627451 0.415686
1537.8024 -2000.0046 1107.3000 0.635294 0.635294 0.431373
1489.1060 -2000.0162 1520.3000 0.619608 0.619608 0.411765
302.6003 -2000.0042 355.8000 0.615686 0.615686 0.411765
1231.7955 -1999.9846 1841.0000 0.615686 0.615686 0.4
102.0997 -1999.9879 1272.0000 0.603922 0.603922 0.392157
261.2002 -2000.0031 778.6000 0.615686 0.615686 0.4
299.3987 -1999.9801 1187.9000 0.611765 0.611765 0.4
1360.7965 -1999.9894 1884.0000 0.615686 0.615686 0.4
1453.2990 -1999.9969 1975.4000 0.615686 0.615686 0.4
336.2982 -1999.9758 1498.8000 0.603922 0.603922 0.392157
713.8004 -2000.0016 482.9000 0.631373 0.631373 0.419608
1678.1000 -177.6000 0.0005 0.164706 0.137255 0.137255
770.1000 -1382.6000 0.0154 0.12549 0.0941176 0.0941176
818.6008 -2000.0044 1503.2000 0.615686 0.615686 0.4
872.3974 -1999.9874 1148.6000 0.615686 0.615686 0.403922
858.5000 -136.0000 -0.0018 0.176471 0.145098 0.145098
823.6019 -2000.0099 1863.6000 0.611765 0.611765 0.396078
646.2980 -1999.9869 1532.6000 0.611765 0.611765 0.4
503.3000 -1095.3000 -0.0028 0.12549 0.0941176 0.0941176
1567.2938 -1999.9839 1711.2000 0.619608 0.619608 0.411765
1754.5945 -1999.9873 1977.4000 0.619608 0.619608 0.403922
640.2001 -2000.0002 245.8000 0.635294 0.635294 0.431373
783.0224 -2000.0615 212.9999 0.635294 0.635294 0.435294
1599.3000 -1295.9000 -0.0235 0.12549 0.0941176 0.0941176
120.8014 -2000.0527 1661.0999 0.6 0.6 0.384314
1659.7000 -1389.7000 0.0079 0.12549 0.0941176 0.0941176
1605.6000 -1875.0000 -0.0148 0.160784 0.12549 0.12549
1897.4098 -2000.0205 1875.2000 0.627451 0.627451 0.415686
1694.3000 -204.0000 -0.0254 0.160784 0.12549 0.12549
1486.1995 -1999.9988 1234.0000 0.631373 0.631373 0.419608
1293.6934 -1999.9783 1743.4000 0.615686 0.615686 0.4
849.8987 -1999.9935 1718.9000 0.611765 0.611765 0.4
470.7020 -2000.0190 740.9000 0.615686 0.615686 0.403922
102.3000 -1030.1000 -0.0085 0.192157 0.160784 0.160784
1446.4990 -1999.9976 1264.0000 0.631373 0.631373 0.419608
708.0963 -1999.9771 1937.8000 0.603922 0.603922 0.392157
367.4985 -1999.9819 1067.0000 0.615686 0.615686 0.4
556.4053 -2000.0417 1713.8000 0.603922 0.603922 0.392157
420.1008 -2000.0085 816.8000 0.615686 0.615686 0.403922
1802.6820 -1999.9872 185.1000 0.670588 0.670588 0.486275
1623.9987 -1999.9966 1983.8000 0.615686 0.615686 0.403922
1631.5959 -1999.9913 1449.8000 0.631373 0.631373 0.419608
1520.0000 -1173.8000 -0.0227 0.12549 0.0941176 0.0941176
124.8994 -1999.9764 1941.9000 0.6 0.6 0.380392
300.1000 -1655.8000 -0.0220 0.12549 0.0941176 0.0941176
1250.5081 -2000.0270 1855.3000 0.615686 0.615686 0.4
956.7942 -1999.9741 1400.5000 0.615686 0.615686 0.403922
629.0030 -2000.0209 1819.2000 0.603922 0.603922 0.392157
1550.1000 -322.3000 0.0009 0.129412 0.101961 0.101961
251.3989 -1999.9813 1240.6000 0.611765 0.611765 0.396078
283.4007 -2000.0118 1206.1000 0.611765 0.611765 0.396078
731.7000 -1330.6000 0.0501 0.12549 0.0941176 0.0941176
974.3026 -2000.0114 1057.2000 0.619608 0.619608 0.411765
