2000.0063 -1454.1000 921.5000 0.827451 0.827451 0.705882
2000.0145 -1321.7000 1913.2000 0.811765 0.811765 0.682353
1042.9000 -1999.9858 444.2000 0.815686 0.815686 0.690196
2000.0034 -433.6000 1673.2000 0.815686 0.815686 0.690196
1502.5000 -1872.5000 -0.0005 0.580392 0.556863 0.556863
2000.0325 -819.3000 1992.8000 0.811765 0.811765 0.682353
1831.1000 -1999.9960 1294.6000 0.815686 0.815686 0.690196
1746.4000 -1999.9718 464.5000 0.831373 0.831373 0.709804
2000.0332 -1919.8000 1715.5000 0.815686 0.815686 0.686275
579.5000 -1999.9941 344.9000 0.811765 0.811765 0.682353
1999.9958 -1659.1000 1845.7000 0.811765 0.811765 0.682353
1999.9814 -817.5000 1506.0000 0.815686 0.815686 0.690196
2000.0345 -530.6000 1707.0000 0.815686 0.815686 0.690196
2000.0195 -730.4000 1349.4000 0.815686 0.815686 0.701961
1627.2000 -1765.8000 0.0048 0.654902 0.65098 0.65098
1888.4000 -2000.0096 1457.6000 0.815686 0.815686 0.690196
2000.0192 -1236.8000 1058.3000 0.827451 0.827451 0.705882
2000.0137 -1936.6000 565.5000 0.835294 0.835294 0.713725
1182.1000 -1409.1000 -0.0103 0.764706 0.764706 0.764706
1999.9644 -872.6000 1534.4000 0.815686 0.815686 0.690196
2000.0220 -1880.7000 739.7000 0.831373 0.831373 0.709804
1338.6000 -515.6000 -0.0265 0.780392 0.780392 0.780392
254.3000 -923.5000 -0.0238 0.713725 0.705882 0.705882
1414.3000 -2000.0009 398.6000 0.827451 0.827451 0.705882
2000.0208 -1266.6000 789.9000 0.831373 0.831373 0.709804
2000.0020 -926.3000 1221.6000 0.819608 0.819608 0.701961
2000.0129 -803.2000 1285.1000 0.819608 0.819608 0.701961
2000.0094 -1211.3000 1914.5000 0.811765 0.811765 0.682353
2000.0037 -1031.5000 1514.3000 0.815686 0.815686 0.690196
1999.9722 -1719.8000 1111.7000 0.819608 0.819608 0.701961
653.8000 -1999.9836 558.9000 0.803922 0.803922 0.67451
2000.0157 -1189.5000 1589.9000 0.815686 0.815686 0.690196
2000.0404 -1297.5000 1125.4000 0.819608 0.819608 0.705882
778.5000 -1999.9911 243.9000 0.815686 0.815686 0.690196
1999.9913 -928.8000 1173.8000 0.819608 0.819608 0.705882
1999.9995 -1027.5000 1682.9000 0.815686 0.815686 0.690196
1386.4000 -2000.0005 80.0000 0.831373 0.831373 0.709804
2000.0013 -1014.5000 1206.7000 0.819608 0.819608 0.701961
2000.0472 -1109.0000 968.1000 0.827451 0.827451 0.705882
1999.9672 -1881.9000 123.9000 0.839216 0.839216 0.729412
1999.9683 -583.3000 1676.0000 0.815686 0.815686 0.690196
1327.7000 -88.9000 -0.0224 0.603922 0.584314 0.584314
209.9000 -48.8000 0.0239 0.6 0.580392 0.580392
1999.9971 -1655.5000 624.9000 0.835294 0.835294 0.713725
2000.0111 -994.2000 1467.4000 0.815686 0.815686 0.694118
218.2000 -1900.1000 -0.0155 0.521569 0.486275 0.486275
1330.2000 -210.6000 -0.0309 0.694118 0.690196 0.690196
2000.0391 -1330.0000 1549.4000 0.815686 0.815686 0.690196
2000.0031 -1709.7000 533.9000 0.835294 0.835294 0.721569
34.0000 -1088.0000 -0.0089 0.521569 0.486275 0.486275
1999.9642 -853.1000 1174.3000 0.819608 0.819608 0.705882
988.5000 -2000.0028 559.1000 0.815686 0.815686 0.690196
1072.9000 -2000.0233 657.1000 0.815686 0.815686 0.690196
361.4000 -1999.9663 138.4000 0.811765 0.811765 0.682353
2000.0286 -1638.1000 474.2000 0.835294 0.835294 0.721569
2000.0129 -1884.4000 1631.4000 0.815686 0.815686 0.686275
1265.0000 -742.2000 0.0496 0.792157 0.792157 0.792157
1999.9923 -1155.4000 857.1000 0.831373 0.831373 0.709804
2000.0251 -1585.4000 1877.1000 0.811765 0.811765 0.682353
2000.0212 -1745.3000 1578.6000 0.815686 0.815686 0.690196
1999.9642 -1767.5000 1675.1000 0.815686 0.815686 0.686275
2000.0461 -543.7000 1559.1000 0.815686 0.815686 0.690196
2000.0209 -1035.1000 1534.3000 0.815686 0.815686 0.690196
1392.4000 -439.3000 -0.0152 0.780392 0.780392 0.780392
1532.6000 -1999.9767 113.2000 0.835294 0.835294 0.713725
1826.2000 -1501.2000 0.0280 0.654902 0.647059 0.647059
1999.9636 -1275.8000 1406.3000 0.815686 0.815686 0.694118
1999.9958 -1874.7000 1187.1000 0.819608 0.819608 0.701961
2000.0356 -1200.3000 1346.3000 0.815686 0.815686 0.694118
2000.0298 -1489.6000 1020.1000 0.827451 0.827451 0.705882
32.3000 -1076.4000 0.0057 0.513725 0.486275 0.486275
1605.0000 -1999.9908 1517.0000 0.811765 0.811765 0.67451
2000.0007 -1830.3000 1704.3000 0.815686 0.815686 0.686275
1999.9979 -1475.3000 1149.6000 0.819608 0.819608 0.701961
2000.0009 -1550.5000 1283.8000 0.819608 0.819608 0.694118
2000.0167 -1548.9000 1732.3000 0.815686 0.815686 0.686275
2000.0212 -1530.5000 1554.2000 0.815686 0.815686 0.690196
1999.9628 -1763.2000 408.8000 0.835294 0.835294 0.72549
1340.4000 -1603.9000 0.0237 0.729412 0.72549 0.72549
417.0000 -1847.6000 -0.0334 0.576471 0.545098 0.545098
6.5000 -1109.6000 0.0045 0.490196 0.454902 0.454902
2000.0118 -1910.1000 1786.5000 0.811765 0.811765 0.682353
68.5000 -1995.5000 -0.0116 0.431373 0.380392 0.380392
1999.9976 -825.9000 1981.3000 0.811765 0.811765 0.682353
904.7000 -1999.9905 741.0000 0.811765 0.811765 0.682353
2000.0173 -1507.3000 1509.6000 0.815686 0.815686 0.690196
62.7000 -1721.5000 0.0060 0.501961 0.466667 0.466667
1424.7000 -215.1000 0.0374 0.694118 0.686275 0.686275
179.4000 -269.2000 -0.0020 0.65098 0.635294 0.635294
1999.9933 -401.6000 1869.6000 0.811765 0.811765 0.686275
2000.0179 -1010.9000 1373.3000 0.815686 0.815686 0.694118
2000.0148 -1922.9000 152.8000 0.839216 0.839216 0.72549
1358.5000 -1999.9624 179.3000 0.827451 0.827451 0.705882
204.3000 -462.0000 -0.0295 0.670588 0.658824 0.658824
2000.0261 -1603.2000 1261.3000 0.819608 0.819608 0.694118
1404.5000 -1999.9871 366.1000 0.827451 0.827451 0.705882
1999.9731 -453.0000 1889.0000 0.811765 0.811765 0.686275
1908.8000 -2000.0155 1389.4000 0.815686 0.815686 0.690196
1999.9858 -834.9000 1782.9000 0.811765 0.811765 0.686275
1421.6000 -1985.5000 -0.0038 0.47451 0.435294 0.435294
1999.9932 -985.1000 1024.8000 0.827451 0.827451 0.705882
1999.9661 -882.5000 1265.6000 0.819608 0.819608 0.701961
1999.9980 -1289.3000 1575.9000 0.815686 0.815686 0.690196
1999.9990 -1397.7000 1124.2000 0.819608 0.819608 0.705882
959.4000 -2000.0049 175.8000 0.819608 0.819608 0.694118
1999.9838 -1305.9000 860.5000 0.831373 0.831373 0.709804
2000.0063 -1788.6000 1463.7000 0.815686 0.815686 0.690196
1999.9899 -1161.4000 1168.0000 0.819608 0.819608 0.705882
237.9000 -872.2000 -0.0067 0.705882 0.694118 0.694118
269.4000 -451.0000 0.0219 0.701961 0.690196 0.690196
859.4000 -1999.9969 217.3000 0.815686 0.815686 0.690196
704.1000 -1999.9941 634.3000 0.803922 0.803922 0.67451
1463.4000 -1604.8000 0.0118 0.72549 0.721569 0.721569
1442.3000 -2000.0271 40.2000 0.835294 0.835294 0.713725
1350.8000 -2000.0070 472.4000 0.819608 0.819608 0.701961
2000.0061 -1645.0000 778.1000 0.831373 0.831373 0.709804
1807.2000 -57.0000 -0.0019 0.54902 0.52549 0.52549
664.8000 -1357.7000 -0.0030 0.792157 0.792157 0.792157
1999.9879 -1144.0000 1032.7000 0.827451 0.827451 0.705882
752.5000 -1999.9884 203.2000 0.815686 0.815686 0.690196
2000.0024 -766.4000 1669.0000 0.815686 0.815686 0.690196
1999.9923 -1827.0000 1140.8000 0.819608 0.819608 0.701961
1999.9818 -657.6000 1854.2000 0.811765 0.811765 0.686275
782.7000 -1999.9785 566.9000 0.811765 0.811765 0.682353
1999.9958 -1758.3000 612.4000 0.835294 0.835294 0.713725
1193.8000 -665.3000 0.0049 0.780392 0.780392 0.780392
1919.8000 -146.6000 -0.0069 0.529412 0.505882 0.505882
1391.7000 -179.9000 0.0336 0.670588 0.654902 0.654902
1551.3000 -2000.0132 1068.0000 0.815686 0.815686 0.690196
1849.9000 -1999.9946 906.1000 0.827451 0.827451 0.705882
380.1000 -61.3000 -0.0130 0.611765 0.592157 0.592157
1759.1000 -2000.0323 973.0000 0.819608 0.819608 0.694118
2000.0107 -1819.8000 1346.7000 0.815686 0.815686 0.694118
1266.7000 -1999.9930 1192.0000 0.803922 0.803922 0.67451
2000.0002 -907.7000 1933.3000 0.811765 0.811765 0.682353
2000.0284 -1592.1000 1187.5000 0.819608 0.819608 0.701961
2000.0016 -322.2000 1675.3000 0.815686 0.815686 0.690196
519.3000 -734.6000 0.0282 0.760784 0.760784 0.760784
2000.0009 -1840.5000 1245.4000 0.819608 0.819608 0.694118
2000.0446 -1079.8000 1275.0000 0.819608 0.819608 0.701961
2000.0048 -1732.2000 1169.2000 0.819608 0.819608 0.701961
1178.5000 -1596.5000 0.0282 0.745098 0.741176 0.741176
2000.0022 -1379.6000 1237.9000 0.819608 0.819608 0.701961
945.2000 -1615.9000 -0.0014 0.756863 0.756863 0.756863
1899.2000 -2000.0062 303.8000 0.835294 0.835294 0.721569
2000.0065 -714.5000 1416.5000 0.815686 0.815686 0.694118
2000.0090 -1611.7000 1448.5000 0.815686 0.815686 0.690196
1999.9830 -1090.1000 1542.2000 0.815686 0.815686 0.690196
1665.9000 -1999.9960 1143.8000 0.815686 0.815686 0.690196
1999.9906 -1201.8000 1235.3000 0.819608 0.819608 0.701961
944.2000 -501.7000 0.0301 0.760784 0.760784 0.760784
631.6000 -2000.0001 23.0000 0.815686 0.815686 0.690196
2000.0096 -1930.8000 1417.7000 0.815686 0.815686 0.690196
631.8000 -1999.9689 398.7000 0.811765 0.811765 0.682353
2000.0004 -310.3000 1832.0000 0.811765 0.811765 0.686275
354.6000 -1036.4000 0.0015 0.760784 0.760784 0.760784
1384.7000 -1999.9622 748.9000 0.815686 0.815686 0.690196
1457.2000 -1999.9928 1099.9000 0.815686 0.815686 0.686275
1999.9998 -953.1000 1295.4000 0.819608 0.819608 0.701961
1455.5000 -530.6000 0.0067 0.792157 0.792157 0.792157
2000.0204 -905.2000 1776.7000 0.815686 0.815686 0.686275
1999.9911 -1159.5000 1134.6000 0.819608 0.819608 0.705882
2000.0033 -427.1000 1627.3000 0.815686 0.815686 0.690196
1999.9818 -1821.8000 1993.2000 0.811765 0.811765 0.67451
2000.0153 -1413.2000 1035.3000 0.827451 0.827451 0.705882
1580.5000 -1760.5000 -0.0052 0.666667 0.65098 0.65098
1999.9875 -1283.8000 1827.9000 0.811765 0.811765 0.686275
1999.9813 -983.8000 1324.9000 0.819608 0.819608 0.701961
665.7000 -2000.0044 397.3000 0.811765 0.811765 0.686275
1437.4000 -21.0000 0.0163 0.537255 0.505882 0.505882
2000.0239 -1192.4000 976.6000 0.827451 0.827451 0.705882
1999.9752 -1757.5000 1522.2000 0.815686 0.815686 0.690196
2000.0020 -1313.7000 1839.6000 0.811765 0.811765 0.682353
482.7000 -808.5000 -0.0145 0.768627 0.764706 0.764706
362.9000 -1999.9987 6.3000 0.811765 0.811765 0.686275
1934.9000 -1583.6000 0.0000 0.541176 0.509804 0.509804
1999.9956 -612.8000 1872.9000 0.811765 0.811765 0.686275
1675.3000 -1934.6000 0.0010 0.52549 0.494118 0.494118
1999.9886 -1551.2000 825.8000 0.831373 0.831373 0.709804
1356.1000 -2000.0017 268.4000 0.827451 0.827451 0.705882
1999.9902 -1742.4000 1452.4000 0.815686 0.815686 0.690196
1923.4000 -2000.0487 1765.7000 0.811765 0.811765 0.682353
1578.1000 -1720.9000 -0.0228 0.690196 0.686275 0.686275
2000.0107 -441.3000 1880.8000 0.811765 0.811765 0.686275
1999.9872 -1327.1000 1810.5000 0.811765 0.811765 0.686275
1999.9781 -1466.3000 788.8000 0.831373 0.831373 0.709804
1392.0000 -887.3000 -0.0070 0.784314 0.780392 0.780392
448.7000 -55.0000 0.0047 0.6 0.580392 0.580392
1999.9771 -1744.9000 1802.1000 0.811765 0.811765 0.682353
2000.0038 -1426.4000 985.2000 0.827451 0.827451 0.705882
2000.0194 -1664.3000 1564.4000 0.815686 0.815686 0.690196
1999.9919 -1187.8000 1681.5000 0.815686 0.815686 0.690196
2000.0404 -1240.5000 1015.0000 0.827451 0.827451 0.705882
1999.9840 -1832.5000 1383.0000 0.815686 0.815686 0.690196
1317.9000 -668.2000 -0.0095 0.792157 0.792157 0.792157
1999.9818 -902.8000 1569.4000 0.815686 0.815686 0.690196
2000.0153 -1171.8000 1996.0000 0.811765 0.811765 0.67451
157.1000 -1283.9000 -0.0220 0.619608 0.6 0.6
1820.9000 -161.3000 0.0128 0.631373 0.615686 0.615686
1580.5000 -1999.9927 1313.6000 0.811765 0.811765 0.686275
2000.0149 -1220.0000 1587.2000 0.815686 0.815686 0.690196
809.6000 -1999.9720 479.3000 0.811765 0.811765 0.686275
1999.9803 -771.7000 1546.9000 0.815686 0.815686 0.690196
1999.9642 -1852.6000 364.9000 0.835294 0.835294 0.72549
1999.9901 -1898.4000 222.0000 0.839216 0.839216 0.72549
1384.7000 -318.3000 0.0153 0.780392 0.776471 0.776471
2000.0129 -979.6000 1344.0000 0.815686 0.815686 0.694118
2000.0339 -1359.4000 1434.1000 0.815686 0.815686 0.690196
1999.9923 -1406.5000 997.3000 0.827451 0.827451 0.705882
1768.7000 -1429.2000 0.0060 0.682353 0.670588 0.670588
1999.9946 -1286.0000 1341.8000 0.815686 0.815686 0.694118
2000.0005 -980.8000 1556.0000 0.815686 0.815686 0.690196
1999.9771 -1955.6000 347.3000 0.835294 0.835294 0.72549
148.2000 -1370.2000 0.0210 0.603922 0.584314 0.584314
1438.1000 -784.5000 0.0013 0.784314 0.780392 0.780392
26.6000 -453.9000 -0.0072 0.556863 0.52549 0.52549
1999.9872 -933.0000 1047.5000 0.827451 0.827451 0.705882
1036.3000 -1999.9697 994.1000 0.803922 0.803922 0.67451
1999.9935 -1724.4000 888.2000 0.831373 0.831373 0.705882
1607.0000 -296.0000 -0.0008 0.745098 0.745098 0.745098
2000.0284 -1851.8000 306.2000 0.835294 0.835294 0.72549
1325.9000 -2000.0077 30.4000 0.831373 0.831373 0.709804
1999.9758 -1043.0000 1442.4000 0.815686 0.815686 0.694118
2000.0084 -1408.6000 1059.7000 0.827451 0.827451 0.705882
2000.0148 -777.3000 1831.8000 0.811765 0.811765 0.686275
2000.0248 -993.4000 1579.8000 0.815686 0.815686 0.690196
1222.9000 -127.6000 0.0023 0.647059 0.631373 0.631373
1819.9000 -1549.1000 0.0121 0.666667 0.65098 0.65098
2000.0042 -927.7000 1993.0000 0.811765 0.811765 0.682353
2000.0226 -1327.1000 1034.8000 0.827451 0.827451 0.705882
1572.7000 -1999.9932 958.0000 0.815686 0.815686 0.690196
1746.7000 -1972.3000 -0.0173 0.494118 0.458824 0.458824
1999.9919 -963.1000 1128.4000 0.819608 0.819608 0.705882
1791.4000 -1952.2000 0.0280 0.513725 0.482353 0.482353
1999.9911 -252.4000 1789.9000 0.811765 0.811765 0.690196
698.5000 -277.1000 0.0031 0.768627 0.768627 0.768627
2000.0114 -1755.9000 1850.8000 0.811765 0.811765 0.682353
2000.0118 -1949.1000 173.6000 0.839216 0.839216 0.72549
1417.6000 -1999.9875 768.7000 0.815686 0.815686 0.690196
1721.2000 -245.9000 -0.0316 0.701961 0.690196 0.690196
1457.3000 -1003.1000 -0.0034 0.780392 0.780392 0.780392
1727.0000 -2000.0236 551.3000 0.831373 0.831373 0.705882
1999.9800 -1371.9000 840.8000 0.831373 0.831373 0.709804
2000.0060 -815.3000 1229.0000 0.819608 0.819608 0.701961
1824.5000 -1999.9668 693.5000 0.831373 0.831373 0.705882
1675.9000 -1999.9873 486.1000 0.831373 0.831373 0.705882
2000.0220 -856.2000 1796.8000 0.811765 0.811765 0.686275
1002.3000 -1999.9818 620.7000 0.815686 0.815686 0.686275
77.7000 -1392.5000 0.0086 0.541176 0.505882 0.505882
1811.3000 -1999.9998 1220.6000 0.815686 0.815686 0.690196
2000.0288 -1178.9000 804.4000 0.831373 0.831373 0.709804
782.4000 -2000.0018 518.6000 0.811765 0.811765 0.682353
109.6000 -141.8000 0.0109 0.615686 0.6 0.6
1575.6000 -1999.9988 1171.2000 0.815686 0.815686 0.690196
2000.0078 -653.0000 1557.4000 0.815686 0.815686 0.690196
1999.9993 -1134.4000 925.8000 0.827451 0.827451 0.705882
1999.9935 -490.0000 1665.2000 0.815686 0.815686 0.690196
172.3000 -116.4000 0.0105 0.65098 0.635294 0.635294
104.2000 -400.0000 -0.0314 0.627451 0.611765 0.611765
197.9000 -100.7000 -0.0055 0.65098 0.639216 0.639216
1407.0000 -1747.3000 0.0076 0.670588 0.666667 0.666667
1999.9858 -1641.9000 510.9000 0.835294 0.835294 0.721569
1999.9822 -1849.1000 1221.0000 0.819608 0.819608 0.694118
156.5000 -987.8000 -0.0110 0.639216 0.627451 0.627451
1999.9930 -1759.2000 1626.6000 0.815686 0.815686 0.690196
1003.9000 -483.0000 -0.0167 0.764706 0.760784 0.760784
2000.0037 -1666.8000 1797.7000 0.811765 0.811765 0.682353
221.1000 -1362.6000 -0.0057 0.67451 0.658824 0.658824
2000.0125 -1710.3000 1387.0000 0.815686 0.815686 0.690196
2000.0259 -453.5000 1552.2000 0.815686 0.815686 0.690196
595.2000 -82.1000 -0.0001 0.619608 0.603922 0.603922
1999.9875 -288.8000 1991.4000 0.811765 0.811765 0.682353
1594.3000 -1999.9755 1272.8000 0.815686 0.815686 0.686275
1002.7000 -1999.9987 178.6000 0.819608 0.819608 0.701961
918.5000 -1562.6000 0.0295 0.764706 0.760784 0.760784
2000.0240 -1535.0000 1836.5000 0.811765 0.811765 0.682353
2000.0309 -924.5000 1319.5000 0.819608 0.819608 0.701961
1064.9000 -1532.1000 -0.0124 0.760784 0.760784 0.760784
62.7000 -772.5000 -0.0027 0.564706 0.545098 0.545098
2000.0410 -1080.0000 1658.3000 0.815686 0.815686 0.690196
2000.0638 -1879.8000 775.7999 0.831373 0.831373 0.709804
1020.0000 -241.6000 0.0091 0.741176 0.737255 0.737255
1822.2000 -1680.4000 -0.0326 0.666667 0.65098 0.65098
1999.9919 -784.2000 1910.7000 0.811765 0.811765 0.682353
1843.5000 -1999.9937 259.7000 0.835294 0.835294 0.721569
1689.4000 -43.7000 -0.0251 0.545098 0.52549 0.52549
2000.0441 -1735.8000 1300.6000 0.819608 0.819608 0.694118
1999.9930 -1699.7000 1573.4000 0.815686 0.815686 0.690196
1590.7000 -1256.5000 -0.0135 0.760784 0.760784 0.760784
2000.0347 -1839.0000 1821.6000 0.811765 0.811765 0.682353
2000.0159 -1360.2000 1986.2000 0.811765 0.811765 0.67451
1103.1000 -1420.6000 0.0234 0.768627 0.768627 0.768627
1271.8000 -1632.6000 -0.0281 0.729412 0.72549 0.72549
2000.0010 -1383.1000 1182.5000 0.819608 0.819608 0.701961
1607.1000 -1999.9865 148.3000 0.835294 0.835294 0.713725
1215.9000 -348.6000 -0.0140 0.776471 0.768627 0.768627
1999.9865 -1266.2000 1533.3000 0.815686 0.815686 0.690196
2000.0338 -1909.2000 1036.0000 0.827451 0.827451 0.705882
1999.9843 -697.8000 1647.9000 0.815686 0.815686 0.690196
1090.8000 -2000.0049 240.4000 0.819608 0.819608 0.701961
1999.9840 -1076.3000 1768.5000 0.815686 0.815686 0.686275
2000.0085 -1725.3000 843.0000 0.831373 0.831373 0.705882
1885.7000 -1999.9742 421.1000 0.835294 0.835294 0.713725
1999.9989 -1691.7000 1075.4000 0.827451 0.827451 0.705882
1858.7000 -1999.9950 1725.2000 0.811765 0.811765 0.682353
1668.9000 -1999.9854 1335.7000 0.815686 0.815686 0.686275
1395.8000 -1606.6000 -0.0110 0.72549 0.72549 0.72549
1999.9845 -270.2000 1991.5000 0.811765 0.811765 0.682353
1999.9990 -696.6000 1801.8000 0.811765 0.811765 0.686275
2000.0125 -1525.1000 1221.4000 0.819608 0.819608 0.701961
1349.5000 -1999.9811 1131.3000 0.811765 0.811765 0.682353
1999.9889 -1469.4000 970.2000 0.827451 0.827451 0.705882
2000.0201 -1339.7000 1763.3000 0.815686 0.815686 0.686275
2000.0074 -570.1000 1671.6000 0.815686 0.815686 0.690196
1999.9932 -684.2000 1512.7000 0.815686 0.815686 0.690196
2000.0059 -1910.5000 125.4000 0.839216 0.839216 0.729412
1999.9904 -1372.1000 1880.7000 0.811765 0.811765 0.682353
1999.9821 -1914.4000 1743.3000 0.815686 0.815686 0.686275
631.6000 -860.7000 0.0253 0.764706 0.764706 0.764706
1705.5000 -1627.2000 -0.0148 0.713725 0.705882 0.705882
2000.0052 -283.6000 1999.7000 0.811765 0.811765 0.682353
1999.9839 -1804.2000 861.8000 0.831373 0.831373 0.705882
1999.9788 -1515.4000 951.4000 0.827451 0.827451 0.705882
201.7000 -643.5000 -0.0061 0.682353 0.670588 0.670588
1633.8000 -1741.7000 0.0112 0.682353 0.670588 0.670588
2000.0027 -1820.1000 1295.9000 0.819608 0.819608 0.694118
2000.0166 -1899.9000 1459.1000 0.815686 0.815686 0.690196
2000.0066 -1854.3000 541.0000 0.835294 0.835294 0.721569
831.7000 -2000.0175 442.0000 0.815686 0.815686 0.686275
995.7000 -1999.9991 476.5000 0.815686 0.815686 0.690196
1999.9825 -1198.0000 1863.9000 0.811765 0.811765 0.682353
2000.0222 -1235.1000 1559.1000 0.815686 0.815686 0.690196
1713.0000 -1953.5000 0.0165 0.509804 0.47451 0.47451
2000.0114 -897.8000 1838.7000 0.811765 0.811765 0.686275
1386.5000 -1973.3000 0.0336 0.486275 0.45098 0.45098
2000.0024 -1792.8000 420.7000 0.835294 0.835294 0.72549
1999.9973 -1771.4000 712.7000 0.831373 0.831373 0.709804
817.5000 -2000.0040 242.4000 0.815686 0.815686 0.690196
2000.0236 -1420.6000 1462.1000 0.815686 0.815686 0.690196
2000.0148 -636.8000 1930.4000 0.811765 0.811765 0.682353
2000.0251 -1185.3000 1748.8000 0.815686 0.815686 0.686275
1149.4000 -2000.0020 87.4000 0.827451 0.827451 0.705882
1408.6000 -641.9000 -0.0118 0.784314 0.784314 0.784314
1374.8000 -1999.9756 73.3000 0.831373 0.831373 0.709804
1349.4000 -2000.0142 878.7000 0.815686 0.815686 0.690196
872.4000 -2000.0470 825.5000 0.803922 0.803922 0.67451
1631.3000 -1999.9524 792.6000 0.819608 0.819608 0.701961
1999.9678 -1930.6000 994.1000 0.827451 0.827451 0.705882
2000.0082 -1235.2000 1003.4000 0.827451 0.827451 0.705882
1861.4000 -1999.9818 1807.1000 0.811765 0.811765 0.67451
1539.0000 -1766.6000 -0.0073 0.654902 0.647059 0.647059
1999.9978 -874.4000 1605.2000 0.815686 0.815686 0.690196
1240.5000 -1999.9999 1058.3000 0.811765 0.811765 0.682353
2000.0248 -1272.9000 1964.5000 0.811765 0.811765 0.67451
1999.9796 -891.9000 1466.2000 0.815686 0.815686 0.694118
1999.9969 -823.3000 1920.9000 0.811765 0.811765 0.682353
284.1000 -1012.8000 0.0171 0.729412 0.72549 0.72549
1999.9906 -1400.9000 1158.2000 0.819608 0.819608 0.701961
2000.0142 -1240.4000 938.9000 0.827451 0.827451 0.705882
1999.9902 -1495.7000 1217.6000 0.819608 0.819608 0.701961
2000.0104 -1117.1000 1779.9000 0.811765 0.811765 0.686275
1999.9995 -1702.0000 716.3000 0.831373 0.831373 0.709804
1999.9915 -1867.6000 1372.7000 0.815686 0.815686 0.690196
1999.9836 -1847.1000 353.8000 0.835294 0.835294 0.72549
41.0000 -1816.0000 0.0277 0.47451 0.435294 0.435294
2000.0103 -512.9000 1987.9000 0.811765 0.811765 0.682353
1653.2000 -1999.9993 1189.5000 0.815686 0.815686 0.690196
1999.9640 -1587.3000 1501.9000 0.815686 0.815686 0.690196
548.9000 -2000.0277 44.7000 0.815686 0.815686 0.690196
2000.0022 -927.0000 1676.0000 0.815686 0.815686 0.690196
607.6000 -962.1000 -0.0202 0.768627 0.768627 0.768627
1856.0000 -2000.0017 211.8000 0.835294 0.835294 0.72549
336.6000 -1743.3000 0.0370 0.694118 0.686275 0.686275
1999.9958 -1805.8000 1029.8000 0.827451 0.827451 0.705882
1932.2000 -2000.0114 1478.2000 0.815686 0.815686 0.690196
1999.9999 -1032.5000 1422.7000 0.815686 0.815686 0.694118
2000.0396 -1867.3000 1619.1000 0.815686 0.815686 0.686275
531.5000 -1924.7000 0.0059 0.505882 0.470588 0.470588
1243.3000 -1945.1000 -0.0292 0.505882 0.470588 0.470588
1013.7000 -1713.0000 -0.0147 0.705882 0.694118 0.694118
2000.0424 -834.6000 1489.9000 0.815686 0.815686 0.690196
1776.4000 -2000.0206 1165.8000 0.815686 0.815686 0.690196
1413.5000 -1844.3000 -0.0176 0.6 0.580392 0.580392
1999.9746 -1695.7000 1867.7000 0.811765 0.811765 0.682353
2000.0107 -1883.9000 1839.2000 0.811765 0.811765 0.682353
2000.0092 -1204.6000 781.2000 0.831373 0.831373 0.713725
2000.0197 -951.1000 1144.1000 0.819608 0.819608 0.705882
2000.0164 -1834.8000 872.3000 0.831373 0.831373 0.705882
841.5000 -1999.9944 471.5000 0.815686 0.815686 0.686275
1999.9642 -1595.0000 1059.6000 0.827451 0.827451 0.705882
1613.4000 -2000.0131 491.6000 0.827451 0.827451 0.705882
1999.9647 -1859.5000 858.8000 0.831373 0.831373 0.705882
2000.0313 -207.0000 1982.8000 0.811765 0.811765 0.682353
1999.9850 -1339.9000 1014.1000 0.827451 0.827451 0.705882
1999.9858 -1541.4000 1793.0000 0.811765 0.811765 0.686275
489.4000 -1999.9879 188.9000 0.811765 0.811765 0.686275
2000.0093 -1350.0000 985.7000 0.827451 0.827451 0.705882
1999.9633 -1402.5000 917.4000 0.827451 0.827451 0.705882
1999.9823 -1135.5000 1982.6000 0.811765 0.811765 0.67451
1403.4000 -1770.5000 0.0298 0.654902 0.647059 0.647059
1686.1000 -2000.0131 1449.3000 0.811765 0.811765 0.682353
1528.2000 -2000.0032 384.8000 0.827451 0.827451 0.705882
607.2000 -1999.9906 75.7000 0.815686 0.815686 0.690196
2000.0223 -767.4000 1380.1000 0.815686 0.815686 0.694118
1157.3000 -560.1000 0.0017 0.776471 0.776471 0.776471
1576.8000 -69.3000 -0.0120 0.580392 0.556863 0.556863
1338.8000 -312.6000 0.0046 0.776471 0.776471 0.776471
1999.9989 -1790.2000 882.0000 0.831373 0.831373 0.705882
1999.9882 -1378.9000 1092.6000 0.827451 0.827451 0.705882
2000.0157 -1050.1000 1469.8000 0.815686 0.815686 0.690196
2000.0262 -1758.5000 260.3000 0.835294 0.835294 0.72549
42.8000 -1850.4000 -0.0067 0.470588 0.435294 0.435294
1999.9865 -1127.0000 1308.8000 0.819608 0.819608 0.701961
1999.9919 -720.6000 1535.7000 0.815686 0.815686 0.690196
1999.9948 -1739.4000 1748.4000 0.815686 0.815686 0.686275
2000.0250 -1821.1000 883.8000 0.831373 0.831373 0.705882
2000.0105 -1623.6000 681.4000 0.831373 0.831373 0.713725
54.5000 -1280.1000 -0.0079 0.52549 0.490196 0.490196
1116.4000 -1761.9000 0.0236 0.666667 0.65098 0.65098
1999.9836 -925.3000 1596.3000 0.815686 0.815686 0.690196
1999.9694 -1321.2000 1279.5000 0.819608 0.819608 0.701961
2000.0103 -1596.1000 815.0000 0.831373 0.831373 0.709804
2000.0376 -1348.6000 1258.7000 0.819608 0.819608 0.701961
1507.2000 -1936.4000 0.0021 0.52549 0.490196 0.490196
2000.0168 -1719.2000 1586.8000 0.815686 0.815686 0.690196
2000.0033 -1736.6000 504.5000 0.835294 0.835294 0.721569
1687.4000 -1999.9698 240.1000 0.835294 0.835294 0.713725
2000.0176 -795.1000 1982.9000 0.811765 0.811765 0.682353
2000.0193 -1880.3000 418.1000 0.835294 0.835294 0.721569
1118.0000 -510.5000 -0.0184 0.768627 0.768627 0.768627
1999.9875 -1544.3000 1345.1000 0.815686 0.815686 0.694118
2000.0247 -1605.7000 1196.9000 0.819608 0.819608 0.701961
2000.0074 -1717.4000 1334.6000 0.815686 0.815686 0.694118
996.2000 -1999.9944 403.4000 0.815686 0.815686 0.690196
1432.6000 -2000.0366 1040.5000 0.815686 0.815686 0.686275
1864.5000 -2000.0242 818.3000 0.827451 0.827451 0.705882
53.8000 -218.6000 -0.0437 0.596078 0.576471 0.576471
1323.3000 -1999.9958 1080.9000 0.811765 0.811765 0.682353
533.3000 -662.7000 -0.0477 0.756863 0.74902 0.74902
910.5000 -1358.1000 -0.0248 0.784314 0.784314 0.784314
1999.9943 -1328.3000 1469.9000 0.815686 0.815686 0.690196
1516.8000 -2000.0072 320.7000 0.831373 0.831373 0.705882
1999.9915 -1694.1000 594.6000 0.835294 0.835294 0.713725
1999.9908 -1027.2000 1841.3000 0.811765 0.811765 0.686275
2000.0212 -1501.9000 1860.9000 0.811765 0.811765 0.682353
1999.9863 -1866.1000 1251.5000 0.819608 0.819608 0.694118
1999.9535 -1553.3000 705.5000 0.831373 0.831373 0.713725
2000.0009 -1142.9000 1138.2000 0.819608 0.819608 0.705882
1910.2000 -1999.9967 808.8000 0.827451 0.827451 0.705882
2000.0142 -1832.0000 485.3000 0.835294 0.835294 0.721569
276.9000 -680.5000 -0.0075 0.709804 0.705882 0.705882
1999.9897 -1493.1000 1671.4000 0.815686 0.815686 0.686275
1999.9789 -1651.3000 1353.2000 0.815686 0.815686 0.694118
1511.3000 -2000.0222 602.7000 0.819608 0.819608 0.701961
1701.9000 -1299.4000 -0.0152 0.721569 0.709804 0.709804
334.7000 -1897.3000 0.0318 0.52549 0.490196 0.490196
1999.9839 -446.4000 1561.8000 0.815686 0.815686 0.690196
217.9000 -1666.4000 -0.0066 0.658824 0.647059 0.647059
1006.7999 -139.0001 -0.0519 0.666667 0.65098 0.65098
977.6000 -2000.0231 946.9000 0.803922 0.803922 0.67451
2000.0242 -1333.7000 789.6000 0.831373 0.831373 0.709804
2000.0065 -983.1000 1172.1000 0.819608 0.819608 0.705882
1999.9851 -319.2000 1704.4000 0.815686 0.815686 0.690196
1393.1000 -1999.9869 148.6000 0.831373 0.831373 0.709804
1045.2000 -2000.0446 281.6000 0.815686 0.815686 0.694118
2000.0117 -516.1000 1799.7000 0.811765 0.811765 0.686275
2000.0508 -1535.6000 1590.5000 0.815686 0.815686 0.690196
1058.9000 -1999.9941 786.0000 0.811765 0.811765 0.686275
405.5000 -115.6000 0.0026 0.658824 0.65098 0.65098
2000.0166 -1180.5000 1476.0000 0.815686 0.815686 0.690196
470.4000 -1886.2000 -0.0198 0.541176 0.505882 0.505882
1339.3000 -704.7000 0.0152 0.792157 0.792157 0.792157
1999.9673 -607.9000 1837.2000 0.811765 0.811765 0.686275
1999.9948 -1853.8000 1744.7000 0.815686 0.815686 0.686275
229.5000 -167.4000 0.0078 0.670588 0.654902 0.654902
341.7000 -939.8000 0.0050 0.756863 0.74902 0.74902
2000.0085 -1874.5000 380.2000 0.835294 0.835294 0.72549
1999.9816 -1235.1000 975.9000 0.827451 0.827451 0.705882
1054.9000 -2000.0059 563.9000 0.815686 0.815686 0.690196
178.8000 -1103.0000 -0.0155 0.65098 0.635294 0.635294
160.1000 -167.7000 -0.0017 0.635294 0.619608 0.619608
1571.5000 -1999.9926 1430.4000 0.811765 0.811765 0.682353
751.4000 -1999.9851 447.5000 0.811765 0.811765 0.686275
960.3000 -12.4000 0.0492 0.541176 0.513725 0.513725
2000.0201 -820.5000 1786.5000 0.811765 0.811765 0.686275
1999.9608 -58.8000 1940.5000 0.811765 0.811765 0.686275
1999.9882 -1530.1000 952.3000 0.827451 0.827451 0.705882
1243.0000 -1999.9535 379.3000 0.819608 0.819608 0.701961
1999.9943 -1267.7000 1484.3000 0.815686 0.815686 0.690196
2000.0044 -1144.8000 869.0000 0.831373 0.831373 0.709804
2000.0013 -1068.4000 1579.0000 0.815686 0.815686 0.690196
1704.4000 -1999.9921 642.9000 0.827451 0.827451 0.705882
1999.9814 -1856.9000 1586.8000 0.815686 0.815686 0.690196
469.5000 -2000.0192 168.3000 0.811765 0.811765 0.686275
1999.9941 -758.3000 1758.5000 0.815686 0.815686 0.690196
687.9000 -23.5000 -0.0071 0.560784 0.541176 0.541176
1999.9747 -1408.8000 1904.9000 0.811765 0.811765 0.682353
1999.9998 -494.8000 1533.5000 0.815686 0.815686 0.694118
1939.1000 -1850.5000 0.0162 0.545098 0.509804 0.509804
357.7000 -989.3000 -0.0418 0.760784 0.760784 0.760784
2000.0186 -1929.6000 833.3000 0.831373 0.831373 0.705882
2000.0240 -1600.5000 739.7000 0.831373 0.831373 0.709804
126.1000 -1009.1000 0.0006 0.611765 0.592157 0.592157
1999.9833 -1598.5000 1275.0000 0.819608 0.819608 0.694118
1999.9764 -1949.6000 285.8000 0.835294 0.835294 0.72549
2000.0017 -1159.9000 1903.3000 0.811765 0.811765 0.682353
1999.9980 -1653.1000 1781.1000 0.811765 0.811765 0.682353
2000.0079 -911.8000 1643.5000 0.815686 0.815686 0.690196
564.5000 -1999.9662 203.9000 0.811765 0.811765 0.686275
1999.9565 -1401.8000 802.2000 0.831373 0.831373 0.709804
2000.0332 -1243.0000 990.2000 0.827451 0.827451 0.705882
2000.0054 -601.7000 1962.1000 0.811765 0.811765 0.682353
1623.5000 -1666.7000 0.0001 0.705882 0.701961 0.701961
2000.0094 -1888.5000 1963.1000 0.811765 0.811765 0.67451
1085.9000 -429.5000 0.0063 0.764706 0.764706 0.764706
293.2000 -459.2000 -0.0323 0.709804 0.701961 0.701961
1396.2000 -713.2000 0.0328 0.784314 0.784314 0.784314
1818.3000 -1999.9678 1326.3000 0.815686 0.815686 0.690196
1999.9875 -906.7000 1110.3000 0.827451 0.827451 0.705882
1999.9774 -1561.7000 945.3000 0.827451 0.827451 0.705882
1827.0000 -2000.0074 1106.2000 0.819608 0.819608 0.694118
2000.0128 -612.0000 1547.6000 0.815686 0.815686 0.690196
1999.9960 -1659.6000 756.1000 0.831373 0.831373 0.709804
2000.0142 -1580.1000 1250.6000 0.819608 0.819608 0.701961
497.1000 -1999.9795 355.3000 0.803922 0.803922 0.682353
2000.0068 -1727.6000 373.5000 0.835294 0.835294 0.72549
2000.0006 -787.1000 1234.6000 0.819608 0.819608 0.701961
1999.9943 -1600.4000 1966.2000 0.811765 0.811765 0.67451
1515.0000 -2000.0092 1234.3000 0.815686 0.815686 0.686275
989.4000 -2000.0129 811.6000 0.811765 0.811765 0.682353
122.5000 -1208.9000 0.0094 0.596078 0.568627 0.568627
1999.9921 -1907.6000 83.6000 0.839216 0.839216 0.729412
1999.9983 -827.3000 1253.6000 0.819608 0.819608 0.701961
761.9000 -310.4000 -0.0078 0.756863 0.756863 0.756863
1999.9915 -1706.9000 997.3000 0.827451 0.827451 0.705882
899.1000 -2000.0165 291.1000 0.815686 0.815686 0.690196
1999.9894 -1123.5000 1664.5000 0.815686 0.815686 0.690196
1576.1000 -1999.9941 114.7000 0.835294 0.835294 0.713725
2000.0179 -1580.4000 1681.3000 0.815686 0.815686 0.686275
1999.9645 -1788.0000 1754.8000 0.815686 0.815686 0.686275
1391.1000 -725.8000 -0.0008 0.784314 0.784314 0.784314
1982.5000 -1757.2000 -0.0031 0.494118 0.458824 0.458824
417.7000 -1049.6000 0.0140 0.780392 0.780392 0.780392
31.3000 -1460.2000 -0.0098 0.490196 0.45098 0.45098
779.6000 -1065.3000 -0.0108 0.784314 0.784314 0.784314
1999.9841 -1868.1000 1604.3000 0.815686 0.815686 0.690196
1999.9969 -1229.2000 1030.0000 0.827451 0.827451 0.705882
2000.0001 -646.6000 1899.7000 0.811765 0.811765 0.686275
1119.5000 -470.4000 -0.0135 0.768627 0.768627 0.768627
1013.1000 -222.9000 -0.0121 0.72549 0.721569 0.721569
1513.6000 -2000.0132 279.6000 0.831373 0.831373 0.709804
213.1001 -1999.9438 193.6001 0.803922 0.803922 0.67451
190.0999 -415.4001 -0.0537 0.666667 0.65098 0.65098
1734.6000 -2000.0034 868.9000 0.819608 0.819608 0.701961
1678.0000 -1999.9709 662.6000 0.827451 0.827451 0.705882
2000.0165 -1220.6000 1426.4000 0.815686 0.815686 0.694118
1999.9939 -1632.8000 484.1000 0.835294 0.835294 0.721569
1999.9730 -1372.4000 1793.9000 0.811765 0.811765 0.686275
1152.0000 -70.3000 0.0117 0.596078 0.568627 0.568627
1999.9900 -897.9000 1177.7000 0.819608 0.819608 0.705882
734.9000 -306.7000 -0.0035 0.756863 0.756863 0.756863
1999.9857 -1372.4000 1199.3000 0.819608 0.819608 0.701961
2000.0142 -1782.6000 247.7000 0.835294 0.835294 0.72549
2000.0188 -1626.4000 1399.9000 0.815686 0.815686 0.690196
1999.9980 -26.7000 1977.5000 0.811765 0.811765 0.686275
1999.9773 -1058.5000 1817.2000 0.811765 0.811765 0.686275
2000.0068 -1825.5000 361.3000 0.835294 0.835294 0.72549
778.6000 -124.1000 0.0000 0.654902 0.647059 0.647059
1194.6000 -69.5000 0.0011 0.592157 0.568627 0.568627
7.9000 -1712.4000 -0.0178 0.45098 0.411765 0.411765
2000.0050 -1806.4000 1415.5000 0.815686 0.815686 0.690196
1755.6000 -2000.0144 1364.2000 0.815686 0.815686 0.686275
1999.9852 -1938.3000 127.7000 0.839216 0.839216 0.729412
1999.9937 -1000.7000 1264.1000 0.819608 0.819608 0.701961
285.4000 -1423.5000 -0.0128 0.729412 0.72549 0.72549
2000.0129 -1776.7000 1586.5000 0.815686 0.815686 0.690196
1440.1000 -1999.9840 505.4000 0.819608 0.819608 0.705882
2000.0183 -1671.5000 1137.3000 0.819608 0.819608 0.701961
1103.5000 -1788.9000 -0.0139 0.647059 0.631373 0.631373
1026.3000 -212.6000 0.0344 0.713725 0.709804 0.709804
2000.0134 -222.5000 1873.1000 0.811765 0.811765 0.686275
1746.1000 -1999.9716 1379.7000 0.815686 0.815686 0.686275
1125.7000 -1560.1000 -0.0171 0.74902 0.745098 0.745098
1999.9882 -1226.2000 1473.4000 0.815686 0.815686 0.690196
315.2000 -1744.0000 -0.0170 0.690196 0.682353 0.682353
1999.9731 -1674.3000 1695.1000 0.815686 0.815686 0.686275
536.3000 -768.1000 -0.0251 0.760784 0.760784 0.760784
208.0000 -862.8000 0.0070 0.694118 0.686275 0.686275
924.3000 -68.5000 -0.0120 0.6 0.580392 0.580392
137.8000 -1117.9000 -0.0108 0.615686 0.596078 0.596078
1999.9664 -1110.9000 1323.4000 0.819608 0.819608 0.694118
1783.8000 -1999.9730 1388.4000 0.815686 0.815686 0.686275
1693.8000 -2000.0138 1193.8000 0.815686 0.815686 0.690196
2000.0093 -964.2000 1309.0000 0.819608 0.819608 0.701961
1999.9968 -1833.8000 319.0000 0.835294 0.835294 0.72549
1575.4000 -2000.0255 682.0000 0.819608 0.819608 0.701961
145.8000 -1204.9000 -0.0197 0.615686 0.596078 0.596078
1999.9801 -1826.0000 1086.2000 0.827451 0.827451 0.705882
1999.9991 -1503.9000 1620.6000 0.815686 0.815686 0.690196
1999.9716 -797.5000 1293.6000 0.819608 0.819608 0.701961
2000.0179 -612.6000 1476.1000 0.815686 0.815686 0.694118
1999.9932 -766.5000 1979.2000 0.811765 0.811765 0.682353
1623.2000 -1993.2000 -0.0050 0.470588 0.435294 0.435294
1999.9471 -1607.7999 1784.0001 0.811765 0.811765 0.686275
1999.9821 -1648.8000 1179.8000 0.819608 0.819608 0.701961
1999.9594 -1830.3000 433.9000 0.835294 0.835294 0.721569
1999.9923 -121.7000 1853.3000 0.811765 0.811765 0.690196
425.8000 -83.0000 -0.0034 0.631373 0.615686 0.615686
245.6000 -842.4000 0.0217 0.705882 0.701961 0.701961
1999.9778 -918.7000 1213.7000 0.819608 0.819608 0.701961
1999.9850 -1283.7000 1502.3000 0.815686 0.815686 0.690196
1999.9901 -1467.6000 1904.4000 0.811765 0.811765 0.682353
2000.0090 -1669.8000 1875.5000 0.811765 0.811765 0.682353
2000.0063 -1867.1000 338.4000 0.835294 0.835294 0.72549
1653.0000 -2000.0107 1043.6000 0.815686 0.815686 0.690196
423.7000 -2000.0250 257.1000 0.803922 0.803922 0.682353
44.0000 -412.7000 -0.0054 0.576471 0.54902 0.54902
1999.9893 -913.7000 1810.9000 0.811765 0.811765 0.686275
2000.0038 -1855.3000 162.8000 0.839216 0.839216 0.72549
1999.9948 -1559.6000 1655.0000 0.815686 0.815686 0.690196
1999.9720 -1819.2000 1628.8000 0.815686 0.815686 0.686275
2000.0601 -1508.3000 1900.2999 0.811765 0.811765 0.682353
1999.9705 -1443.1000 728.7000 0.831373 0.831373 0.713725
1898.4000 -2000.0074 1872.7000 0.811765 0.811765 0.67451
1512.9000 -1999.9803 75.5000 0.835294 0.835294 0.713725
197.5000 -848.3000 0.0140 0.690196 0.682353 0.682353
636.7000 -930.2000 -0.0002 0.768627 0.768627 0.768627
2000.0071 -1820.3000 435.7000 0.835294 0.835294 0.721569
1999.9912 -1454.4000 1088.1000 0.827451 0.827451 0.705882
1999.9911 -856.1000 1815.4000 0.811765 0.811765 0.686275
2000.0244 -1783.8000 674.8000 0.831373 0.831373 0.713725
642.5000 -2000.0096 513.4000 0.803922 0.803922 0.67451
2000.0067 -445.7000 1676.8000 0.815686 0.815686 0.690196
2000.0367 -1907.9000 1234.0000 0.819608 0.819608 0.694118
771.5000 -1123.6000 0.0078 0.784314 0.784314 0.784314
1036.6000 -1292.7000 -0.0209 0.784314 0.780392 0.780392
2000.0052 -893.1000 1866.0000 0.811765 0.811765 0.686275
122.4000 -1139.8000 -0.0117 0.6 0.576471 0.576471
91.2000 -1705.9000 -0.0020 0.529412 0.494118 0.494118
1999.9657 -1488.2000 1889.9000 0.811765 0.811765 0.682353
1999.9933 -1351.9000 1696.7000 0.815686 0.815686 0.686275
1999.9855 -1599.1000 1088.3000 0.827451 0.827451 0.705882
2000.0116 -1505.5000 984.4000 0.827451 0.827451 0.705882
1999.9988 -1811.8000 503.6000 0.835294 0.835294 0.721569
2000.0076 -898.6000 1609.6000 0.815686 0.815686 0.690196
1999.9962 -1707.8000 1162.7000 0.819608 0.819608 0.701961
2000.0228 -1640.1000 749.7000 0.831373 0.831373 0.709804
1999.9958 -880.5000 1375.9000 0.815686 0.815686 0.694118
655.9000 -35.9000 -0.0139 0.576471 0.54902 0.54902
1606.8000 -1999.9902 1137.8000 0.815686 0.815686 0.690196
1770.0000 -121.6000 0.0048 0.6 0.580392 0.580392
1999.9966 -1340.8000 1200.3000 0.819608 0.819608 0.701961
1383.3000 -1999.9825 672.9000 0.815686 0.815686 0.694118
1999.9965 -801.0000 1452.6000 0.815686 0.815686 0.694118
1348.9000 -1707.9000 -0.0107 0.705882 0.694118 0.694118
2000.0151 -1496.4000 1718.8000 0.815686 0.815686 0.686275
818.6000 -2000.0001 163.0000 0.815686 0.815686 0.690196
2000.0173 -1647.7000 938.5000 0.827451 0.827451 0.705882
1480.3000 -900.9000 -0.0171 0.780392 0.780392 0.780392
969.0000 -2000.0175 693.5000 0.811765 0.811765 0.686275
1999.9723 -615.1000 1501.1000 0.815686 0.815686 0.694118
1905.8000 -1536.9000 -0.0047 0.568627 0.545098 0.545098
2000.0010 -1766.7000 880.2000 0.831373 0.831373 0.705882
2000.0170 -1043.0000 1177.1000 0.819608 0.819608 0.705882
1999.9930 -1442.1000 911.4000 0.827451 0.827451 0.705882
2000.0125 -753.6000 1908.7000 0.811765 0.811765 0.682353
2000.0197 -1693.0000 1068.0000 0.827451 0.827451 0.705882
1999.9890 -1282.7000 1725.5000 0.815686 0.815686 0.686275
2000.0138 -432.1000 1866.4000 0.811765 0.811765 0.686275
1383.8000 -1999.9897 885.4000 0.815686 0.815686 0.690196
1999.9742 -1481.3000 1174.8000 0.819608 0.819608 0.701961
1589.1000 -2000.0107 491.8000 0.827451 0.827451 0.705882
1279.9000 -1654.7000 0.0054 0.729412 0.72549 0.72549
1386.4000 -1837.1000 -0.0039 0.603922 0.584314 0.584314
109.2000 -223.9000 0.0131 0.615686 0.6 0.6
2000.0027 -1797.0000 1056.3000 0.827451 0.827451 0.705882
545.8000 -1999.9940 289.7000 0.811765 0.811765 0.682353
1999.9819 -223.7000 1907.4000 0.811765 0.811765 0.686275
1275.5000 -2000.0017 0.3000 0.831373 0.831373 0.709804
1999.9705 -530.0000 1736.0000 0.815686 0.815686 0.690196
1999.9976 -798.5000 1368.3000 0.815686 0.815686 0.694118
2000.0479 -555.0000 1966.8000 0.811765 0.811765 0.682353
1235.8000 -699.8000 0.0018 0.784314 0.784314 0.784314
2000.0129 -1652.8000 1556.3000 0.815686 0.815686 0.690196
2000.0017 -538.0000 1456.0000 0.815686 0.815686 0.694118
949.5000 -1999.9886 868.6000 0.803922 0.803922 0.67451
2000.0035 -1363.8000 1395.6000 0.815686 0.815686 0.694118
2000.0146 -429.0000 1992.2000 0.811765 0.811765 0.682353
2000.0162 -697.6000 1595.1000 0.815686 0.815686 0.690196
1999.9983 -699.2000 1973.8000 0.811765 0.811765 0.682353
245.1000 -788.8000 0.0113 0.705882 0.694118 0.694118
1999.9847 -1162.7000 1000.1000 0.827451 0.827451 0.705882
2000.0076 -696.6000 1808.5000 0.811765 0.811765 0.686275
1797.4000 -1999.9855 885.9000 0.827451 0.827451 0.701961
2000.0118 -1701.6000 1247.0000 0.819608 0.819608 0.694118
761.4000 -1159.9000 -0.0316 0.792157 0.792157 0.792157
3.9000 -283.7000 0.0073 0.545098 0.521569 0.521569
903.8000 -399.4000 0.0216 0.756863 0.756863 0.756863
1767.0000 -1999.9938 128.6000 0.835294 0.835294 0.72549
2000.0015 -650.8000 1666.5000 0.815686 0.815686 0.690196
2000.0165 -1667.3000 857.3000 0.831373 0.831373 0.705882
1999.9888 -905.6000 1904.4000 0.811765 0.811765 0.682353
1999.9841 -761.1000 1235.5000 0.819608 0.819608 0.701961
1673.4000 -1336.9000 0.0147 0.741176 0.737255 0.737255
1757.9000 -1999.9626 138.5000 0.835294 0.835294 0.72549
2000.0078 -1329.8000 1508.2000 0.815686 0.815686 0.690196
1999.9565 -1764.0000 771.3000 0.831373 0.831373 0.709804
1328.9000 -654.3000 -0.0034 0.792157 0.792157 0.792157
1494.0000 -1999.9652 526.4000 0.827451 0.827451 0.705882
1999.9652 -1391.7000 1469.3000 0.815686 0.815686 0.690196
2000.0081 -1879.4000 1909.5000 0.811765 0.811765 0.67451
1539.8000 -209.8000 0.0031 0.686275 0.670588 0.670588
2000.0114 -1686.4000 1009.5000 0.827451 0.827451 0.705882
2000.0273 -1618.1000 1411.1000 0.815686 0.815686 0.690196
2000.0339 -1768.9000 1180.1000 0.819608 0.819608 0.701961
1999.9877 -1401.6000 1509.4000 0.815686 0.815686 0.690196
2000.0067 -598.8000 1765.3000 0.815686 0.815686 0.690196
1999.9921 -1593.5000 807.2000 0.831373 0.831373 0.709804
1999.9958 -1150.6000 1874.4000 0.811765 0.811765 0.682353
2000.0250 -1766.3000 1613.2000 0.815686 0.815686 0.690196
1999.9827 -129.3000 1922.6000 0.811765 0.811765 0.686275
2000.0114 -1377.7000 877.7000 0.831373 0.831373 0.709804
209.3000 -1622.8000 0.0074 0.647059 0.631373 0.631373
1999.9803 -1252.5000 1249.7000 0.819608 0.819608 0.701961
1999.9843 -716.3000 1291.0000 0.819608 0.819608 0.701961
2000.0284 -936.3000 1631.3000 0.815686 0.815686 0.690196
1687.0000 -1743.3000 -0.0161 0.682353 0.670588 0.670588
1513.0000 -1675.9000 0.0104 0.709804 0.705882 0.705882
1999.9991 -818.3000 1196.0000 0.819608 0.819608 0.705882
67.6000 -455.4000 0.0316 0.596078 0.568627 0.568627
1999.9792 -1910.3000 1266.7000 0.819608 0.819608 0.694118
2000.0118 -874.0000 1919.5000 0.811765 0.811765 0.682353
1999.9937 -1320.3000 1081.7000 0.827451 0.827451 0.705882
2000.0225 -879.2000 1738.4000 0.815686 0.815686 0.690196
1479.6000 -358.9000 0.0317 0.780392 0.780392 0.780392
1999.9879 -1348.6000 1156.3000 0.819608 0.819608 0.701961
880.1000 -1090.9000 -0.0124 0.792157 0.792157 0.792157
2000.0229 -1409.4000 1170.6000 0.819608 0.819608 0.701961
1999.9830 -1038.1000 1953.8000 0.811765 0.811765 0.682353
1999.9871 -1206.6000 767.0000 0.831373 0.831373 0.713725
1623.2000 -10.4000 -0.0120 0.513725 0.490196 0.490196
531.6000 -2000.0085 422.6000 0.803922 0.803922 0.67451
1999.9808 -277.9000 1725.9000 0.815686 0.815686 0.690196
1999.9792 -691.4000 1695.0000 0.815686 0.815686 0.690196
1077.2000 -2000.0125 187.8000 0.819608 0.819608 0.701961
166.0000 -506.0000 0.0033 0.654902 0.647059 0.647059
1999.9941 -1860.4000 1017.2000 0.827451 0.827451 0.705882
1999.9980 -554.7000 1974.3000 0.811765 0.811765 0.682353
1482.7000 -2000.0029 1471.9000 0.803922 0.803922 0.67451
1850.8000 -1999.9956 56.2000 0.839216 0.839216 0.72549
1999.9893 -1066.2000 932.2000 0.827451 0.827451 0.705882
1999.9689 -1150.7000 1196.9000 0.819608 0.819608 0.701961
80.5000 -1717.7000 0.0034 0.521569 0.486275 0.486275
1999.9902 -719.6000 1899.1000 0.811765 0.811765 0.686275
814.8000 -1122.4000 -0.0053 0.792157 0.792157 0.792157
804.3000 -2000.0070 634.8000 0.811765 0.811765 0.682353
1582.4000 -1999.9803 1575.8000 0.803922 0.803922 0.67451
1999.9861 -1225.0000 1142.4000 0.819608 0.819608 0.705882
2000.0062 -1306.8000 1553.4000 0.815686 0.815686 0.690196
2000.0315 -1349.4000 1225.1000 0.819608 0.819608 0.701961
1682.6000 -1366.6000 -0.0010 0.737255 0.729412 0.729412
518.5000 -1216.3000 0.0060 0.784314 0.784314 0.784314
2000.0082 -1685.1000 922.7000 0.827451 0.827451 0.705882
1388.3000 -1999.9833 516.9000 0.819608 0.819608 0.701961
2000.0212 -1667.9000 1117.1000 0.819608 0.819608 0.701961
2000.0326 -1528.3000 1119.3000 0.819608 0.819608 0.705882
2000.0066 -1760.3000 369.3000 0.835294 0.835294 0.72549
1109.0000 -1620.3000 -0.0033 0.745098 0.745098 0.745098
1333.1000 -1999.9995 142.7000 0.831373 0.831373 0.705882
2000.0139 -1634.6000 1661.7000 0.815686 0.815686 0.686275
2000.0070 -1136.5000 1568.9000 0.815686 0.815686 0.690196
1332.1000 -1999.9795 523.8000 0.819608 0.819608 0.701961
1999.9893 -1707.4000 1135.4000 0.819608 0.819608 0.701961
1544.3000 -759.7000 -0.0029 0.780392 0.780392 0.780392
1493.8000 -1999.9897 330.2000 0.827451 0.827451 0.705882
1597.6000 -2000.0173 533.4000 0.827451 0.827451 0.705882
2000.0278 -1623.2000 1970.1000 0.811765 0.811765 0.67451
1479.6000 -419.3000 -0.0119 0.780392 0.780392 0.780392
1999.9943 -659.1000 1753.0000 0.815686 0.815686 0.690196
2000.0306 -43.9000 1964.9000 0.811765 0.811765 0.686275
1467.8000 -1999.9922 729.1000 0.819608 0.819608 0.694118
488.9000 -2000.0361 118.9000 0.811765 0.811765 0.686275
1379.5000 -927.1000 0.0434 0.784314 0.780392 0.780392
2000.0247 -1459.8000 840.5000 0.831373 0.831373 0.709804
2000.0299 -1440.4000 1501.6000 0.815686 0.815686 0.690196
104.6000 -1487.3000 0.0395 0.560784 0.52549 0.52549
2000.0138 -1050.0000 1414.2000 0.815686 0.815686 0.694118
2000.0072 -1757.5000 1154.7000 0.819608 0.819608 0.701961
1036.6000 -195.8000 0.0249 0.705882 0.694118 0.694118
1017.6000 -2000.0059 827.9000 0.811765 0.811765 0.682353
1999.9731 -1689.5000 312.4000 0.835294 0.835294 0.72549
2000.0121 -1867.2000 697.6000 0.831373 0.831373 0.709804
1999.9930 -833.9000 1740.4000 0.815686 0.815686 0.690196
530.9000 -726.2000 -0.0282 0.760784 0.756863 0.756863
2000.0101 -1151.7000 1653.3000 0.815686 0.815686 0.690196
1202.2000 -1999.9681 545.1000 0.815686 0.815686 0.690196
2000.0042 -1010.6000 1425.2000 0.815686 0.815686 0.694118
1999.9811 -1729.3000 283.3000 0.835294 0.835294 0.72549
216.8000 -1474.2000 -0.0160 0.666667 0.65098 0.65098
2000.0214 -1231.8000 933.9000 0.827451 0.827451 0.705882
69.6000 -1347.2000 0.0211 0.537255 0.505882 0.505882
674.9000 -138.7000 -0.0083 0.67451 0.666667 0.666667
2000.0200 -1436.0000 1836.9000 0.811765 0.811765 0.682353
1999.9454 -1523.4999 756.0001 0.831373 0.831373 0.709804
2000.0118 -1736.2000 1063.7000 0.827451 0.827451 0.705882
1999.9742 -1522.5000 1246.1000 0.819608 0.819608 0.701961
1785.4000 -2000.0214 967.1000 0.819608 0.819608 0.701961
2000.0171 -1460.1000 1069.7000 0.827451 0.827451 0.705882
2000.0146 -1562.6000 1610.1000 0.815686 0.815686 0.690196
1207.3000 -1530.1000 -0.0121 0.74902 0.745098 0.745098
1031.0000 -1345.6000 0.0024 0.780392 0.780392 0.780392
2000.0109 -668.7000 1722.7000 0.815686 0.815686 0.690196
1520.6000 -1747.1000 -0.0297 0.670588 0.666667 0.666667
1999.9926 -866.5000 1456.6000 0.815686 0.815686 0.694118
2000.0322 -767.1000 1750.8000 0.815686 0.815686 0.690196
1999.9945 -840.9000 1575.8000 0.815686 0.815686 0.690196
1999.9868 -286.6000 1772.6000 0.815686 0.815686 0.690196
839.8000 -1471.2000 0.0056 0.780392 0.780392 0.780392
1498.6000 -2000.0182 210.7000 0.831373 0.831373 0.709804
1999.9888 -175.2000 75.7000 0.87451 0.87451 0.792157
1915.3000 -1999.9958 785.9000 0.831373 0.831373 0.705882
1999.9799 -396.0000 81.9000 0.870588 0.870588 0.780392
2000.0137 -318.9000 762.1000 0.85098 0.85098 0.745098
487.5000 -1175.5000 -0.0031 0.784314 0.784314 0.784314
2000.0042 -279.9000 62.0000 0.87451 0.87451 0.784314
2000.0253 -318.4000 838.8000 0.847059 0.847059 0.741176
1999.9543 -842.7000 1136.5000 0.819608 0.819608 0.705882
1688.5000 -1809.6000 -0.0312 0.627451 0.611765 0.611765
2000.0129 -524.2000 913.5000 0.835294 0.835294 0.72549
1999.9899 -504.6000 1456.7000 0.815686 0.815686 0.694118
1999.9836 -883.6000 913.7000 0.831373 0.831373 0.713725
774.9000 -1999.9797 522.2000 0.811765 0.811765 0.682353
1621.4000 -1999.9811 900.5000 0.819608 0.819608 0.694118
1857.1000 -2000.0118 1065.4000 0.819608 0.819608 0.694118
389.2000 -1999.9781 338.3000 0.803922 0.803922 0.67451
1999.9991 -172.0000 118.6000 0.87451 0.87451 0.784314
408.0000 -1122.3000 0.0330 0.784314 0.780392 0.780392
1353.8000 -832.2000 -0.0021 0.784314 0.784314 0.784314
1558.5000 -19.1000 -0.0200 0.52549 0.501961 0.501961
1999.9919 -582.8000 1384.0000 0.815686 0.815686 0.701961
1999.9893 -70.1000 47.6000 0.882353 0.882353 0.796078
606.8000 -1999.9846 134.4000 0.815686 0.815686 0.690196
1999.9882 -387.7000 986.6000 0.835294 0.835294 0.72549
2000.0087 -166.4000 1392.9000 0.827451 0.827451 0.709804
2000.0214 -299.3000 1127.5000 0.835294 0.835294 0.72549
1782.6000 -2000.0034 153.6000 0.835294 0.835294 0.72549
2000.0004 -698.6000 1191.1000 0.827451 0.827451 0.705882
2000.0201 -234.4000 1070.6000 0.835294 0.835294 0.72549
2000.0018 -678.4000 1202.5000 0.827451 0.827451 0.705882
1999.9738 -248.8000 640.8000 0.85098 0.85098 0.756863
1364.7000 -21.8000 0.0120 0.537255 0.509804 0.509804
359.1000 -828.4000 -0.0011 0.756863 0.74902 0.74902
