-6.8584 82.1180 1.0867
-35.9655 103.9416 -44.2788
40.0164 104.5804 41.7323
20.8761 131.8389 72.2460
24.0278 91.5129 0.3676
-10.1017 75.8972 -7.3271
23.1898 54.5752 91.7302
-30.2543 158.4101 -36.9060
18.4412 91.5161 -6.4800
-87.9711 106.6741 -31.7967
46.5561 132.2286 26.4604
-82.4996 104.3086 -28.3825
28.0078 94.8507 17.3882
-65.2224 127.0555 -48.5922
27.8173 153.1095 60.0637
-5.4035 151.7101 -14.3818
-42.1368 151.9020 30.0325
16.3610 148.5074 26.4765
-20.0876 97.6962 84.3634
15.0703 121.1820 -28.7156
-26.9391 72.4947 -4.8024
6.0942 101.7964 76.1227
-64.6046 156.4449 -10.1412
-23.5474 147.6797 -44.2618
17.8962 153.4176 -7.3415
-78.0706 145.2225 2.1559
-21.1216 97.2860 -44.5528
-43.8890 164.1149 -29.4392
22.5785 152.2994 -7.4627
-36.2459 119.2270 47.6661
15.7929 112.9110 77.9173
-94.4591 136.4033 -27.6377
-12.6321 156.4447 -8.0907
36.8292 163.5251 41.2669
-37.0091 167.5931 3.8504
3.9344 90.5304 23.5857
-87.1198 130.9494 -11.8244
-61.8461 159.2011 -11.7035
-4.4245 87.0189 11.0934
4.9175 92.0327 -49.8201
25.8344 106.2340 70.3722
-10.6918 86.8678 14.3312
-10.6350 149.7805 -15.3101
27.5124 102.8135 55.5653
8.5510 156.0805 -45.4481
-28.3769 106.9807 -44.6085
-4.7824 152.9994 17.0701
-82.9290 120.9936 15.3015
25.0074 153.9813 32.0117
37.1719 118.5948 71.8161
-84.0957 141.4053 -22.5644
2.2615 151.4816 -22.4883
13.4527 130.9487 65.8614
-52.3185 80.1385 1.3651
6.5166 113.9241 46.2701
-86.0609 104.9179 -28.5511
16.3381 107.5567 -28.6425
-21.5061 87.7039 -49.6987
-46.0078 153.5861 -48.6485
7.5238 119.2434 65.5112
-62.4629 112.2076 -48.2945
23.2881 90.7248 68.0110
10.8434 98.0228 -48.3679
29.6440 163.5067 37.3341
-85.7519 119.8655 -8.4186
37.6670 103.0669 43.0188
-14.3638 82.1423 -28.7837
10.4009 105.1321 77.8616
-15.3523 152.8610 -31.2165
23.1717 105.9563 -40.0076
38.3583 145.8888 17.9465
23.9236 56.8647 77.7399
47.4324 112.8044 7.3726
8.6636 151.0358 -36.3508
-89.5408 120.1853 -38.9131
-47.7944 103.0515 -47.5183
21.5244 93.1335 -8.3847
-94.7260 112.7147 -29.4457
-2.6855 143.4844 31.8051
-84.5687 111.0317 -38.9687
-35.4303 85.7674 -46.8863
-59.6057 97.9597 -43.6556
-13.8534 83.5537 11.2259
33.7585 74.2160 76.6731
-71.1009 123.1374 -48.0853
-8.4146 95.9557 93.5460
18.8091 107.5375 -22.4933
-82.2722 138.3523 -1.8405
-26.4628 141.0568 41.5158
-6.9413 132.8394 40.5324
-97.7055 121.9696 -29.7275
-19.2138 128.8839 -45.2393
-85.5622 122.5320 -41.6726
-24.1191 101.7014 38.0876
-67.5627 137.1098 -44.9156
-47.8188 77.6851 -3.1362
-33.3589 140.0130 43.8996
51.7437 150.8483 31.2602
-30.1061 127.3413 -45.0202
10.6095 113.4446 81.6523
-3.0398 118.5497 -49.6729
32.2140 94.3250 3.8483
9.5692 88.6656 15.2045
-71.1895 91.5115 -9.2569
-57.1493 112.0731 43.3920
-24.1167 154.1590 19.0035
6.0909 96.5625 -40.9168
-20.0038 159.2072 -27.3593
-83.3878 123.8112 13.0549
-26.1415 143.6418 39.6569
-45.3599 89.5650 21.4911
-42.5365 133.1577 47.2749
12.3593 141.0718 -25.1845
-28.0063 73.0990 -12.7937
25.1014 68.9868 85.3683
-15.5767 97.7766 92.5234
-25.4880 142.2640 40.4844
-62.4915 156.4395 -24.6132
-13.9804 151.0385 -24.6325
-10.1994 75.5231 -3.0818
-48.6908 163.4180 -26.9767
44.6591 160.9749 41.6593
18.2022 104.2974 -38.9874
32.8134 69.4864 91.2554
31.5925 141.8675 70.8482
-66.8221 92.9429 15.9716
-32.4991 101.7050 -44.3916
7.5083 100.2213 -29.0615
-70.0091 134.6595 -45.4590
37.1303 105.2352 29.0107
-60.5648 142.5425 -47.1656
22.2508 135.5066 -21.4914
23.0103 92.1108 73.7283
-36.9706 115.5597 -45.0204
35.0651 78.6444 67.2160
-3.0665 152.6271 -7.8895
-14.0482 84.1040 -35.2872
-81.3087 137.6244 9.7862
-98.5694 117.8428 -17.0370
8.9750 90.3773 21.3051
-17.4400 166.5086 -2.8942
33.9155 100.0112 -8.2646
-68.3649 93.4070 14.1995
-44.5281 77.3288 3.3665
-42.5006 77.0689 5.3808
-62.0547 127.4717 42.0041
-15.6018 155.6828 -17.2621
48.9111 123.8736 2.8590
21.4895 142.4846 -18.4904
49.2298 135.2368 30.1256
-74.3388 112.4196 29.2460
-82.3451 143.1281 -32.5477
8.2797 97.9144 -49.7685
-35.8972 142.3326 42.4823
-24.1786 84.3575 -47.4395
-60.8017 84.1264 -26.6388
23.7035 88.2371 77.6623
-24.7876 141.2106 40.8585
43.4527 144.8194 66.4778
-67.9838 89.5362 3.2762
46.3960 109.7688 13.1489
23.4882 95.7932 65.4758
30.9970 96.5964 19.0715
27.1772 86.1868 63.4558
-21.5867 92.2939 96.0515
-41.4305 165.9087 -24.0895
9.8319 154.1534 15.5518
-76.0511 147.3530 -10.5795
-77.6682 132.8552 24.0626
-86.0686 138.0921 -36.2429
-61.3721 160.0824 1.5917
-70.2897 98.3564 -31.2002
12.9431 102.3471 -49.9179
-18.2105 73.9556 6.2314
50.4733 137.2821 51.8934
27.9443 70.2321 88.0955
-18.1306 163.3023 9.0180
42.6022 160.7403 39.2979
-10.1215 86.2643 -35.0555
-68.8480 152.5611 -20.3140
-36.2129 169.4034 -9.1855
10.7921 144.9148 31.2119
38.9333 148.1577 66.5683
-53.1081 80.0431 -4.6225
44.9867 109.7464 50.7487
-4.4562 89.5040 -8.8211
3.2603 141.2833 35.1947
23.2436 101.7228 37.3785
23.2383 62.2683 82.2690
9.2979 149.5189 -15.5232
22.8553 93.3845 71.0226
-46.8892 89.7370 20.4919
-96.4618 128.8546 -31.6851
32.0060 107.9067 74.3062
29.7037 56.4819 97.3913
-21.3351 72.8161 5.2167
49.3837 153.7614 49.2759
-21.2856 102.0650 76.1068
-1.6469 105.2686 42.1227
-81.8261 105.9085 -10.4631
49.9639 138.2419 52.7572
-86.1876 118.6475 -10.0433
-24.7749 72.5742 -13.8305
-3.5750 96.7407 -19.4521
3.9827 147.4194 28.0626
-1.8638 97.6183 86.2328
-4.6358 97.6319 76.4793
-61.8464 111.8512 40.5611
-59.9369 95.6769 27.7043
-24.7952 92.5098 -47.9480
-30.1468 151.2368 31.3830
6.2792 103.6224 -49.7496
15.3789 100.9686 -18.0533
-3.9547 151.6533 -17.4900
51.6079 118.1451 48.6360
-43.8037 132.7516 47.2815
16.5484 131.3524 -49.7175
-8.4576 104.5644 88.3138
-39.8730 166.0871 -23.7009
-76.4008 147.3171 -0.9902
28.9876 93.1555 3.8984
8.0179 116.1167 80.3733
4.9158 106.0200 43.7389
-29.2827 159.7806 -39.2525
-57.4427 88.2399 -39.8967
-29.4828 98.6573 -44.4115
-11.6546 87.4975 20.4600
-47.0511 94.6255 -49.2003
-5.4513 88.7218 19.2317
-14.8114 163.1980 4.7353
24.4014 91.9491 10.2832
23.2850 96.1050 66.5130
44.9520 109.1361 49.5259
-7.2741 122.9906 43.0932
21.9374 99.1790 -15.4937
27.4378 97.4152 77.3827
-44.1641 78.9728 10.3893
2.1206 151.0396 -48.6243
39.3054 146.7813 9.4330
25.3060 155.1713 2.0768
-29.7189 90.3192 28.2180
-77.2562 99.7537 9.8013
-26.9620 107.7161 -44.6796
-83.5023 105.4896 -25.1916
-28.7644 91.5290 -49.1589
24.3859 149.5452 30.2547
11.8446 143.7239 44.5677
34.2337 131.6865 72.7580
-59.9384 83.5225 -19.2349
53.4041 144.0613 34.2476
29.6580 69.4345 66.7041
39.6612 80.6262 81.8373
-67.5282 95.0334 -34.3862
-21.3110 157.4585 14.4058
38.9735 103.5638 -6.1123
8.0789 95.7759 -45.6089
-59.1877 152.2455 -35.9670
15.2809 108.5916 65.1744
-26.3596 162.6337 13.3360
31.9513 152.4619 5.3400
-72.8358 99.8922 -28.1377
35.9896 86.2039 68.2954
-3.1553 136.3876 -49.2824
-78.5164 120.7754 -45.1928
-76.2426 97.0984 -14.2415
25.3846 111.2168 70.0545
-6.7070 98.8882 -27.4290
26.4348 95.6632 22.2299
-58.0690 122.2623 44.2804
-19.4801 80.9392 -33.8240
-11.8324 161.1649 -37.6854
35.9679 122.8598 72.4989
-34.0600 87.2908 17.8761
17.3058 109.8174 -28.5053
-87.9273 124.8200 -40.1201
23.7625 112.6300 70.4290
-3.2752 97.7184 76.7752
27.6892 148.1160 67.4527
30.1443 61.9634 93.8756
-34.9385 155.0085 -48.7636
-41.1951 78.1238 9.9658
-49.2106 89.3035 -48.1411
-54.2758 81.9782 6.3999
10.9701 131.2952 54.2374
-63.3673 152.5618 -30.2098
-54.9805 156.7997 -32.5638
23.1890 109.0631 67.1791
25.7295 127.4074 72.8160
-22.7484 167.7609 2.0265
31.4267 134.7552 72.7260
35.8826 163.6714 43.0474
14.9158 133.7958 -24.5105
45.2004 107.1241 3.2116
7.0411 116.6328 47.9557
17.6022 89.2845 0.6982
-35.4256 115.5271 47.2238
25.8304 94.5302 77.2236
-38.1970 150.3731 34.0855
14.4390 109.1919 77.7304
-64.5912 91.1842 -34.6324
-2.9295 83.0699 -49.8140
-28.7292 165.8465 -16.7767
-35.0528 75.5541 -20.3746
32.5531 67.9630 78.4786
14.8062 128.0131 69.8344
-22.0952 122.2621 -45.1367
-15.2900 158.5933 10.3253
42.1766 111.3227 64.3658
14.2800 132.9298 67.7676
30.9818 102.7703 53.7505
-21.3532 107.1732 -44.8520
-22.7876 142.2443 39.2021
-6.7694 154.7787 6.1783
47.4625 123.4595 -2.2385
22.6899 95.0297 26.3730
20.2231 146.2755 64.5886
-58.0410 82.8915 0.0752
-52.6710 81.4958 -27.4026
-17.8668 164.1485 -8.0961
-41.1729 75.6698 -10.2941
33.2490 119.1744 72.3658
23.1978 82.4427 78.6652
47.6686 158.9785 38.3415
-24.2256 149.5900 31.5174
-10.3556 95.2112 95.1039
-64.6701 143.2795 -43.5354
-2.5041 150.8683 -36.9363
-30.4990 128.5488 46.7973
-45.7713 103.7658 -45.4337
-50.4303 86.1303 13.4523
-9.5715 119.0394 42.2900
23.8937 107.1758 -39.4770
38.9509 107.5960 65.5129
-7.9047 99.5719 35.7303
7.8341 94.2043 -46.8456
-34.9558 80.6918 -35.7859
-18.7357 104.1645 75.0262
-19.4245 95.8869 33.2495
13.8814 112.4971 79.6235
52.0529 126.4182 50.9096
-47.0417 138.5304 44.8405
-11.7700 79.9436 -18.0055
-20.6367 72.0027 -11.3813
-63.2177 136.7886 -46.8348
-84.0879 142.6286 -25.3497
-83.6129 142.5319 -25.1150
-84.4707 134.0838 -39.9874
26.3174 146.5009 -42.2837
-45.5814 81.4087 -32.2507
34.5679 143.6535 69.9358
12.6106 131.1166 -36.1273
-46.3595 165.9317 -15.5422
-66.9886 109.0560 -45.4178
-61.0790 97.2055 29.6841
-48.6370 101.9558 40.7765
-9.8607 87.5208 17.3822
0.9827 153.9743 2.1537
7.9662 100.6165 -37.0182
27.5515 143.9496 -45.6600
-34.2602 164.2687 -30.2763
-8.4366 157.2689 -36.6042
6.0259 90.1444 -1.0940
-51.7387 80.0655 5.4304
-71.9632 150.9884 -12.4476
1.5440 91.0049 24.6985
-44.1971 167.2243 -9.4419
45.0863 123.2341 70.2762
-24.3838 73.1383 5.9956
-39.6948 75.1407 -9.1344
-80.5489 103.5375 -5.0618
31.2813 111.8473 -42.8688
-81.9157 107.7975 -13.5038
-24.8736 92.9147 87.8529
-67.3760 89.6791 -20.9034
-81.7184 138.3107 -13.1742
-21.5327 71.8135 2.2153
-48.9221 78.0076 -8.6134
-5.1874 152.6725 17.9937
-46.7427 81.6354 11.5089
-1.3745 150.3190 -35.1333
-72.3624 134.5975 -44.7889
-63.1998 149.9365 -35.8281
39.5352 143.9012 24.3272
-73.5847 133.3587 30.5748
33.1548 114.3776 -47.7010
-18.4313 82.7918 -37.8077
-9.5956 102.0054 -44.9843
-70.9224 146.5525 20.0327
-1.3779 101.7874 91.5600
2.3514 95.9772 -17.7929
-81.9695 140.9454 -22.8822
15.7263 155.7036 -39.3599
27.0550 88.4744 81.6908
-77.6253 134.7029 23.4297
11.4270 146.8284 28.7992
-15.9931 130.3347 -45.3540
5.0087 87.1891 -46.1586
-41.6162 119.6960 -49.1954
-40.7786 94.4073 34.5908
9.9516 113.5460 82.0173
29.6225 163.4244 36.2341
31.5600 109.3667 -17.2102
-87.5684 117.2926 -11.4211
-46.4455 130.9153 47.4912
4.0619 90.8569 -3.4169
46.9894 137.0839 5.4933
-4.0892 151.1116 -35.7051
-29.7065 160.1311 -34.7073
51.7433 129.3056 54.7782
-86.6407 112.5505 -38.8014
-41.4682 77.5215 8.3405
-7.0759 88.3308 18.9212
-11.2172 86.0974 -49.7896
-79.1331 140.9129 11.8438
42.5139 117.9623 -10.0752
-45.3543 76.5280 -10.6014
-58.9001 105.6221 39.1841
20.3707 92.1137 20.0792
-81.5163 139.2521 -5.3921
-16.4461 81.5996 -31.0435
15.2140 89.1267 -0.4439
-2.9208 116.5925 44.3547
-22.8504 84.6686 95.2527
24.7422 151.3115 49.1072
29.1502 71.7217 88.5050
31.1144 92.2263 61.4194
49.9902 127.5641 17.5498
-55.6288 88.6407 18.3819
15.5161 154.5095 -38.2280
36.4504 163.7274 44.6106
-29.2439 75.6881 9.7856
-1.6277 82.9931 -41.1489
-19.0781 146.8760 -44.3986
-27.0483 147.4487 -44.1598
3.6405 151.4924 -20.2253
53.6070 142.7484 37.2904
-78.9629 140.4414 -38.7179
-14.7536 86.5562 16.0477
-81.8751 138.3333 -11.8880
-86.3631 138.7420 -35.3754
-41.4382 96.7085 36.5906
32.8660 102.8242 51.2389
14.8303 155.6891 5.2114
-33.7496 73.6327 3.0136
-64.6067 126.6761 -48.7173
35.1371 80.1154 68.2469
-25.6979 106.7186 -44.6874
13.5097 107.6877 76.4758
21.4162 116.6387 -35.8834
17.7959 133.5630 -23.7358
19.4388 131.4301 -23.9751
-19.9390 124.0230 -45.2063
-42.1769 165.9056 8.2866
-44.3707 77.9494 -15.3879
-35.2679 126.6152 47.6316
-28.5520 113.3325 -44.8178
42.4183 103.0734 11.6400
-35.2886 167.8574 3.0727
28.2518 162.6742 37.8689
-28.8092 168.0167 2.2017
26.6670 154.4324 48.8555
-0.8622 97.5806 80.9114
-63.0328 155.9771 -24.2234
24.5592 102.4642 -16.7241
11.9987 106.2776 76.7161
7.4721 95.7969 -16.3310
45.3820 115.9196 63.9318
46.8295 113.1236 18.2744
-53.2071 81.7075 -24.8822
-13.1500 134.9546 -45.3413
-73.4914 101.5804 22.9951
-45.4741 82.1328 -33.5855
35.6920 116.8679 -16.8828
42.7185 109.9118 56.5486
-85.1940 127.2017 -2.6139
-4.2019 139.0939 -49.0361
-34.9470 158.7076 -45.5407
-15.0283 75.3565 -15.9070
53.1523 127.1701 31.0864
10.7181 109.7068 62.3503
45.1590 144.3075 27.5059
32.4306 96.0723 -4.6379
22.8877 85.7200 70.2010
-72.5754 118.0348 32.8142
-45.7373 112.9148 -49.3066
48.1596 134.8735 16.5075
29.3862 99.2274 78.0797
-32.6018 78.4196 -31.1350
23.7263 85.0629 67.3809
2.2521 153.3564 0.9568
-11.6978 110.3530 40.8547
19.9445 108.4011 62.1147
-76.5375 100.9062 -23.6037
30.1814 149.2211 -7.1270
-24.6890 153.9087 21.4694
-44.4771 167.3345 -0.6255
-93.4225 132.7403 -12.2229
39.8946 68.6514 88.5260
-12.6843 81.7441 -40.2058
-50.4827 163.0444 -26.9949
-18.3764 91.6961 102.3068
29.1395 54.3810 89.3828
-28.6292 87.7733 22.1571
44.3370 146.1280 26.9690
43.2085 142.8937 10.5498
-74.5283 146.6214 14.1199
-11.3457 101.5929 90.1814
-33.9579 153.2537 27.4825
-60.0293 138.0428 -48.1761
50.3763 123.7076 15.3135
8.0328 142.7399 33.0986
54.3485 127.7255 45.5547
33.7886 93.7746 62.2657
-38.5248 85.6655 -43.6404
-75.7914 117.6165 28.3938
-48.9016 166.2452 -9.3268
48.1089 134.3375 17.5492
-24.1657 111.8169 44.1062
-10.9844 158.0002 1.0409
-1.8072 109.6247 67.0596
17.1344 115.3328 76.5133
-9.3466 106.3807 39.7263
-91.5079 126.1643 -9.7428
-24.6106 136.4074 43.3094
31.9859 120.3490 -47.1889
-2.0259 142.2929 34.0171
31.9233 57.0763 90.9757
-75.5128 142.2604 -31.6635
45.0669 157.7101 52.8847
10.1167 109.6080 46.9858
-53.0383 119.0833 46.3948
47.5996 113.7954 9.4657
-85.8291 139.3341 -18.8029
20.9913 115.0839 -23.9717
-47.1992 134.2787 -48.7106
46.7564 110.5004 12.6869
-30.0565 113.1871 45.8982
-29.4249 139.4216 43.3007
-81.3036 102.9497 2.5799
-9.7175 80.0034 -13.6778
-86.7618 116.3103 -11.5577
37.2902 71.3733 89.8518
-59.5386 85.2810 -31.6019
-35.5116 166.8891 -20.2583
-10.4903 97.3310 -44.7231
-76.0064 118.6152 28.1583
-17.4420 162.5212 9.2347
-19.3210 95.2899 99.2341
20.2798 155.0959 -41.1587
-42.8246 102.5106 41.9853
41.3476 107.5980 56.8282
-20.7994 122.8748 44.7153
-61.6611 119.9124 -48.4618
48.8291 111.4421 44.1266
-20.3898 86.8241 93.6760
-17.4744 103.6852 79.5128
-87.8650 123.8410 -40.2864
30.1396 109.2916 73.0968
-18.3101 80.6686 -31.7536
47.7574 128.9013 69.6095
2.1814 87.7203 -40.7055
-46.8118 166.7353 -11.4745
6.3942 97.2200 -20.2323
29.6455 151.6845 16.3886
26.7685 88.0760 81.5896
-29.0098 130.6782 46.2797
43.1197 157.4487 30.3335
23.8871 62.5785 77.4937
15.2796 108.7754 55.7206
-12.0123 79.3158 7.9253
36.9232 97.1188 69.6788
22.7800 149.8791 32.3224
-18.9104 82.4026 12.7061
5.6955 104.0248 69.5245
23.0582 142.1668 -49.0294
-79.3946 141.9607 -16.7727
-8.8140 103.2873 86.3901
31.5067 93.9804 -0.8122
45.4859 107.1823 11.1585
22.9817 127.0648 -43.0991
-9.8682 89.0623 -31.2865
-1.8108 151.8619 -21.2169
-67.6518 106.9000 34.0333
-51.2365 158.7878 15.9091
-33.5499 91.8567 30.2232
-19.9890 162.5692 -37.6120
28.1707 156.7231 29.9374
24.2103 97.2889 73.1245
15.4584 155.9165 1.2721
27.7681 54.6952 75.7882
-4.7034 155.0206 7.4369
-22.0983 146.1859 35.4854
-55.0109 84.7012 -33.1810
-77.6120 104.0607 -32.6380
33.3799 70.8894 78.5649
18.1944 142.7935 -35.4867
-62.2550 159.2735 -9.6543
-27.3411 112.6200 45.1902
21.8539 101.4472 37.1511
-22.3531 162.4792 -39.6636
-4.4708 152.0067 -14.9302
-78.2302 99.8342 -9.7784
-62.8924 121.9331 41.5872
8.8768 112.0323 47.8904
51.6650 146.0489 30.8101
4.2764 152.4978 18.7946
-20.4958 76.7691 10.4977
-23.5950 88.6002 -49.5937
12.2747 156.2098 -41.3297
-78.7840 123.5917 24.0426
11.9944 122.4039 69.8720
-61.7046 87.3232 8.1482
-93.4171 108.7987 -25.4067
-68.2267 153.2748 -18.0915
-75.3069 147.5340 -21.1303
37.9484 162.2744 50.8922
-71.2784 116.3324 34.1439
19.5049 108.1957 60.2790
27.4586 79.7622 65.0223
16.0946 157.1463 -41.8751
11.3257 154.8576 13.3809
-26.0461 166.0656 -11.2496
-43.1800 153.0061 22.2910
-42.7498 88.6099 -48.8686
-44.0386 79.3291 10.8956
32.3747 163.8488 41.0285
-15.0938 152.6229 -24.8774
-58.4441 159.0091 -20.1246
3.7981 98.9097 -26.0380
-78.0916 112.5638 23.5418
-20.5596 78.0905 -28.5748
53.8392 122.7455 44.4195
-79.2866 99.7972 6.0467
-41.2430 85.9388 -40.4843
-7.5838 82.9871 -11.8988
53.4642 143.6350 40.1411
-86.7559 113.6113 -13.7666
-45.5392 89.6274 21.6610
43.3695 107.0000 20.0898
12.8162 108.3106 64.5168
-24.4697 91.7880 90.4892
-42.9216 155.0678 18.7607
29.6648 149.3049 21.5373
18.6914 117.8713 74.1663
4.2598 150.7451 -23.0089
-8.6550 151.2240 -8.8342
-37.5253 167.5036 4.1107
49.8823 126.5806 5.1459
-79.9532 107.8973 17.0066
16.0238 103.5655 41.0719
-93.9777 135.6594 -15.2342
28.2363 97.0601 -10.2852
49.7209 122.5101 67.1693
-75.0524 105.4334 -38.4904
22.1587 103.7520 52.4100
-93.1384 111.5588 -16.4520
-22.7305 158.8806 -32.4414
29.9650 153.0123 7.3257
47.6678 118.1916 27.6438
-71.9236 93.3351 -20.3028
43.1578 130.8420 -7.0798
-27.5254 72.5761 -9.8578
-8.8178 154.7932 8.3938
-31.6528 144.2928 -44.3138
-65.9444 155.1836 -9.7983
7.2924 99.3178 -26.2571
-81.8313 132.8701 14.2216
30.9250 62.3638 77.1316
-68.0849 150.7647 -27.7973
14.0030 135.3150 59.5797
20.4742 146.2538 65.7126
-49.8575 143.8166 -47.7324
-48.5809 155.4551 20.8122
37.0655 67.1585 86.3538
26.3669 99.3825 75.0454
-75.3133 141.9897 -35.3773
10.0422 139.5332 47.5224
-6.6000 151.7402 -33.9641
42.1560 155.0613 27.8857
27.2806 117.3537 -22.5247
-4.7516 86.2415 -0.2939
-5.3297 153.4561 -35.9086
-29.2253 154.0230 23.9408
-20.6883 160.5234 -25.5315
-46.9233 94.9811 34.7808
9.6198 120.1114 54.8492
28.6499 162.3104 41.0947
-20.9599 86.1608 98.0028
27.3868 105.1369 -49.6331
-3.8327 113.4642 75.7646
-4.5638 114.5209 43.6248
32.8947 142.9276 -12.3997
24.6144 152.9519 32.0056
27.3595 111.4501 -20.9469
-83.7602 109.5059 3.4476
-15.7226 107.9571 75.3909
-16.1620 89.8262 91.3861
-31.0953 93.5179 -47.9345
-20.5968 87.5738 101.3584
-55.3830 99.4205 36.5669
-33.5177 102.7915 42.5991
-0.1479 87.2077 6.7641
28.4413 110.9786 -49.9209
-34.3269 164.9250 12.4918
-9.3498 84.5966 7.7358
-53.3142 142.7204 -48.6091
-33.7618 73.0868 -4.3646
52.0263 127.8429 29.8876
-84.0300 130.7984 5.9471
16.4982 94.9806 30.7401
52.2976 141.4221 46.7939
-82.6420 117.9825 16.0337
12.3608 111.4673 80.9504
-67.0302 89.0005 5.7226
-94.0346 111.0163 -18.7377
-41.5066 90.4912 26.8575
-47.5350 158.2924 16.8163
-69.6968 128.1345 35.7806
19.0478 143.5365 -48.9887
-87.9628 121.2970 -40.2259
2.4607 152.5399 15.4475
-19.5528 78.5592 -28.6250
-70.4806 119.6713 35.2087
34.4855 147.8860 21.4014
-8.4047 87.6918 15.4776
16.0816 142.8512 52.5738
-56.8788 82.1990 -5.0552
-63.1101 159.7803 -1.7991
-77.9545 120.4157 25.5470
-2.8208 80.8516 -45.8253
-64.1117 88.3358 -28.4408
15.3930 126.8152 -38.4637
-66.0829 90.2458 -27.1193
31.6133 153.0308 63.2484
14.9035 98.5864 -16.1517
30.8935 106.1887 74.9157
-25.9989 140.3938 41.7597
-8.4993 155.5102 11.3229
7.4660 97.7624 37.3002
-12.9067 74.6091 -10.5847
18.7682 104.2715 -49.9756
41.5597 135.5569 -7.1995
-22.2452 81.4309 -36.1625
-80.6784 137.3481 12.7833
-15.7406 82.2387 -31.7132
10.6387 155.0853 7.7984
-14.3459 132.5409 40.5164
-61.0702 157.8948 -20.9790
25.7347 142.8534 -48.8552
-88.7047 107.6650 -32.7049
26.1529 144.3792 69.8147
-79.0620 104.1163 -29.3897
-10.7314 86.9418 -34.0031
-77.7215 99.6474 -5.7846
-73.6123 96.5855 -23.0104
-80.3800 123.8152 20.8916
38.3546 140.1495 -8.8019
9.2226 146.5145 -22.8954
-8.9069 109.1705 71.4053
37.8403 87.7029 81.4471
26.5230 89.9694 62.8110
-31.7226 80.0844 -34.6309
-40.7205 157.7955 -38.1075
6.0473 147.7241 27.8370
-59.2202 144.0899 -47.6581
-80.7348 108.8941 15.8850
-66.3624 148.2430 24.5724
5.6121 89.1912 17.4985
-34.4405 158.5367 -40.3189
13.6348 153.0369 -37.0663
-81.6627 139.4893 -1.5143
-51.7204 163.8830 7.1542
-17.5493 97.3928 101.4192
31.3706 114.2109 -49.5108
29.4795 91.1609 61.5369
-92.0145 107.4825 -24.4333
-9.0748 151.1359 -9.4720
36.1555 102.1885 -8.6274
-76.1889 95.8470 -2.9941
-72.9706 114.4593 -46.3202
-25.7676 167.6444 -5.8408
-61.8729 99.3732 -40.4134
45.7426 126.5875 -5.2939
44.3199 153.8739 58.3319
40.6343 142.1855 24.6117
-22.5702 73.5320 6.6932
45.7480 151.7287 27.6305
-33.7725 80.1308 -34.4630
30.2163 152.6249 13.1172
-75.6295 120.9719 -46.5424
-49.6264 102.5435 -48.6935
-15.6964 101.3346 -44.8783
-84.7562 127.4723 1.1893
-8.0754 148.9888 -20.2869
-46.7460 136.1767 -47.9781
16.1245 134.6195 70.2619
26.6981 105.9694 -49.7852
16.8828 154.7892 -4.4205
40.7886 124.8964 -12.7225
-2.3733 111.5345 84.9810
28.1781 85.6816 63.1701
35.8661 75.0079 80.2454
6.9318 90.9607 -48.7962
-21.2025 156.8648 -48.6420
-23.0492 109.2375 -44.9046
-81.9003 107.7900 10.1177
9.6745 148.6717 -16.5456
-64.1761 102.0110 32.6189
-36.6237 121.6827 -46.0649
48.8399 142.0744 29.6257
-11.1981 97.8872 75.8315
-10.2357 97.5957 34.2803
-9.1438 95.9902 94.5087
-53.1108 110.2872 44.4861
-54.8504 103.4754 -48.7441
-77.3611 128.4721 25.8567
10.9686 113.6678 54.3878
-39.9520 151.0828 32.5623
17.6792 149.2534 35.3351
2.6764 93.1225 28.3425
48.0170 116.2326 17.5971
-67.6070 139.5230 -43.5444
10.7312 155.9548 -47.9402
-9.1164 85.0177 7.6917
-85.8647 118.1206 -9.5386
-29.1867 76.8030 -26.8590
-55.3352 114.3275 -47.5060
-11.0337 98.9984 -44.8164
-11.9512 78.6512 7.3958
-20.5057 91.3945 -48.4665
13.4006 130.1982 63.5318
-52.0145 164.0503 -1.1486
29.1931 94.1607 10.5208
41.4106 144.8290 6.5981
49.3239 133.2324 14.2937
47.3502 156.5678 50.8231
-52.2490 160.2422 -30.4342
9.3027 140.4951 39.4879
27.5523 99.1523 59.5703
-60.5819 160.8385 -8.7489
-11.3508 110.6513 76.4553
44.2380 138.2071 21.9129
33.1638 127.3184 -19.6099
33.8337 153.8499 26.8723
34.9734 135.5358 72.3209
-18.7920 91.1143 102.4211
11.7041 128.7529 -28.7551
-63.0711 152.9024 -30.1705
-38.4361 167.9971 -11.9433
22.5466 147.3353 58.3431
-73.6056 149.6426 -12.6991
42.9398 126.9513 71.3644
29.7155 94.1169 7.9563
-78.6108 119.6962 24.4957
49.3225 124.9912 4.0983
46.1696 107.9212 37.4018
-74.2820 104.6905 -37.3416
-1.6977 97.1354 81.4948
-25.7494 93.9333 -45.7667
33.4130 70.7091 67.3016
33.1499 100.5683 25.6607
31.4615 152.7008 11.1934
-85.2161 126.8393 -2.5381
-9.0201 147.1892 -29.0779
-46.3425 89.5764 19.4432
-69.0833 153.9049 3.7455
-42.4361 163.4047 13.1141
-71.4017 91.4602 3.9227
31.3369 107.3129 -15.7332
-27.1746 77.0550 11.4077
-27.5246 98.5663 37.2791
-13.2342 157.1425 -8.4867
35.7637 83.0523 67.9707
-41.8239 77.9032 8.9647
-41.0656 77.8189 -23.7872
27.0614 119.3437 -49.6204
16.2850 120.7134 73.5020
-97.5618 128.2657 -13.0043
53.5106 120.8215 35.2076
-80.1292 102.2444 -2.6665
-10.0024 79.8265 -14.1125
-45.4831 163.2560 -31.5255
-50.2804 84.6933 12.5154
47.8615 124.0647 26.1399
2.1513 99.5971 -31.0893
28.9474 93.2493 -2.2006
-47.3804 112.8920 -49.1760
-34.6471 80.4638 -35.3476
-63.0341 159.7132 -1.1079
-27.8024 162.5259 -29.2214
13.4310 136.1788 -33.0087
47.8035 125.3116 23.7741
17.7179 131.8907 -40.7890
-52.5799 89.2815 -46.7836
-32.0035 96.8008 36.2933
39.2946 104.6976 35.5454
10.5977 119.8898 -48.5640
24.0396 68.9054 74.6643
11.4744 92.3257 27.1052
-75.3735 96.2587 -5.2479
7.0289 97.3454 36.8022
-83.2629 136.1475 -1.1690
-65.9606 149.1405 -32.8909
-35.2119 99.9321 -44.3070
-21.7581 88.4849 -49.6317
-78.7085 108.8889 -41.3346
42.4962 134.2337 -6.6061
14.4536 123.2235 -49.7783
-22.3325 89.1349 24.1990
-32.6214 150.7749 32.2209
-72.1754 151.0460 -9.3921
-12.5931 154.4068 13.7344
-25.5531 153.2338 25.4909
-51.6866 93.4112 -48.9818
49.0251 134.3077 13.4922
-0.9161 153.0013 14.6252
-71.0084 153.4767 4.9237
-23.2086 167.3680 4.5429
-37.9113 167.0546 6.3380
9.8202 116.6274 -49.8841
-16.8583 97.4588 96.3794
27.5902 116.1070 -38.2940
36.4795 104.1460 51.9878
30.7451 152.1395 27.1633
-5.6530 93.3314 -16.8817
-62.3227 121.3677 41.9254
-61.6387 149.5282 -44.1200
-31.6918 154.2865 25.0869
-7.3145 160.5863 -47.8949
38.8850 85.4159 77.2342
32.8968 96.7555 16.7244
36.6823 91.8250 66.7390
19.0115 132.5953 -41.2590
-19.8218 139.0325 -44.8981
-25.8220 73.0468 5.7351
-32.1190 75.2371 -17.1742
-71.2262 153.2605 6.3081
21.6423 111.5868 69.8471
13.5262 130.5432 -38.1672
-7.5609 110.1113 41.2629
2.7482 153.2958 1.3075
-18.2916 159.1534 -34.4766
21.5345 138.9539 -38.4427
-65.4371 129.0043 39.4326
-14.8455 115.9000 -45.1611
29.4898 107.1927 73.5182
37.1412 103.5394 36.0108
0.7522 150.0788 -30.2274
-38.9445 166.8886 6.4574
-25.4963 98.5293 36.6975
28.9443 122.4939 -48.9164
49.2441 117.9664 16.1253
31.0365 57.3273 88.9913
-33.3367 116.7658 -44.7743
-26.5354 167.4513 5.4005
41.8346 105.3713 42.3883
31.6276 121.8709 -21.0042
-54.8062 138.0691 42.8410
16.5086 107.9181 -27.8419
16.9494 153.9610 -37.7335
-1.7932 104.4036 92.0716
35.5034 115.9655 -16.8396
13.7103 114.9553 78.9667
17.6699 153.4475 -7.2779
46.2684 141.1771 66.8585
-5.9596 92.8561 -47.1238
41.9207 150.7767 63.1622
-5.0616 86.4343 -7.8531
-59.4042 117.3738 43.2187
-70.4853 145.7944 -32.9514
-11.5260 81.1561 -20.8738
-23.2589 86.0043 90.2916
-35.4429 152.1504 30.3857
-55.2448 158.8687 12.1110
17.2206 113.2003 76.5457
-18.7858 148.1876 31.4273
9.9977 141.6319 39.4751
-22.3244 113.7813 -45.0174
-61.7419 154.7755 -29.7648
-12.3499 74.0533 0.9535
7.0859 151.5051 -13.6411
-16.5105 98.4792 97.3484
48.8728 127.2316 27.4477
42.3091 154.0409 59.8193
-13.6024 86.1617 13.8699
-20.9963 71.8793 -11.0201
39.0816 158.8712 56.2678
-72.9036 143.8937 21.0944
-32.7619 123.4350 47.3502
-20.1994 74.3546 -19.2967
6.8701 94.0975 -43.7581
-30.3679 78.4936 12.4516
34.5209 95.3512 5.4649
-23.8069 116.1475 -44.9990
-52.9797 104.1713 40.9556
19.0429 155.7395 10.4444
-41.2103 88.8439 -49.1655
-10.3161 104.3597 81.5255
-26.6207 87.5154 95.4118
-17.4755 125.0369 43.7009
-77.8915 99.8660 -7.9898
-23.7843 160.5507 14.0457
27.3194 120.7119 -40.3317
36.4611 158.3260 57.3493
-34.8442 157.7775 -38.4926
-18.7366 89.4934 88.2441
-32.8795 154.0136 25.8589
-2.6696 150.0577 -34.9513
35.5136 150.6583 6.6984
-20.8169 95.8976 -44.6077
-89.5612 130.6229 -38.1417
32.2535 111.0036 -49.1039
-29.9451 151.0717 31.6304
-53.8123 153.9745 -47.3876
-64.6632 141.0514 -44.5720
-24.2332 106.0044 41.5542
20.6567 144.4913 55.4014
-18.5521 157.4769 -27.7345
-8.8400 87.8638 17.9114
-89.3674 106.4548 -23.3064
-7.6478 91.3616 25.0093
12.2813 147.4854 -16.2970
-8.4375 152.5464 -3.2565
23.4295 104.6347 65.7499
-14.2240 103.7738 73.0054
24.8592 93.6292 76.4882
16.0953 105.5053 48.8308
34.8297 95.7807 -0.5060
17.9503 95.9776 -13.7353
7.7430 113.2344 -49.7925
-12.0863 155.9688 -7.6406
-82.9124 106.8243 2.7591
-5.0183 100.0057 36.2124
-77.2807 145.4905 8.9641
-4.3997 158.8666 -43.1805
-65.1616 128.0184 -48.4880
-39.3045 105.4192 -44.2398
18.5426 157.3222 -46.0279
-53.0642 118.0460 46.2883
-59.5793 94.0991 23.4207
26.7364 81.4226 84.0411
-26.9004 118.7592 -44.9518
-28.7222 110.6689 -44.7332
26.3411 135.9113 -20.0769
7.5719 97.1716 -19.5753
31.8658 82.7318 86.5837
-96.8198 128.1618 -31.2291
-15.9680 73.6170 4.2391
-28.4742 77.2371 -30.1291
42.6872 121.0640 -9.5377
34.5301 81.9993 70.6642
31.4840 65.1119 76.3398
-29.9665 102.2995 -44.4835
13.9005 101.3961 -40.4641
46.9381 128.7070 69.9473
-51.1088 79.3559 -2.4011
-12.2506 86.8245 16.0314
31.8810 105.2484 -14.0076
-65.8726 110.4976 -46.6591
23.6764 123.1747 -39.8878
29.3456 150.3149 19.8111
-71.8205 119.9578 -47.8691
-78.8099 117.5571 24.0625
-81.7716 143.1167 -29.4352
-42.6397 76.2379 -2.4165
12.7226 121.6526 72.0595
-29.1679 147.1179 -44.0889
42.0650 105.4556 -2.1806
12.4670 144.1386 -32.9650
31.7480 156.4880 58.6214
-65.0232 95.6319 -37.1026
23.7812 143.6281 -38.1730
-75.7676 144.8967 -24.7678
-50.8365 90.5672 -48.6328
-6.2742 84.8695 -10.0872
-6.6238 84.7664 -10.8131
-71.4586 130.1938 33.7203
47.5695 153.7311 54.4847
50.6927 141.9306 50.5594
-70.8400 91.9317 -17.6574
-85.4895 125.3673 -6.4343
-41.6184 134.1956 46.9110
12.2940 88.5782 14.9305
-10.1953 108.8155 77.8871
-66.5083 133.0622 -47.0254
24.2572 75.8180 82.3326
-58.2408 155.6899 -32.2360
41.4201 110.9944 65.3975
-31.1658 139.9326 43.3990
-14.9720 114.7962 42.4949
-0.9952 108.3642 66.7058
24.0351 91.3769 65.3056
-80.1757 132.7711 -42.6062
21.3131 98.2070 -14.9720
-12.9416 159.3970 -5.7296
-13.9688 163.3477 1.7004
24.9076 133.8815 -47.8765
33.7342 71.6349 67.8601
-34.5151 74.4966 4.8073
-15.7021 105.6743 78.6916
-39.0846 90.8751 28.6858
-38.6552 154.9199 19.0691
-83.9594 110.1567 4.6405
54.2169 128.0577 46.2607
24.1701 112.3981 -49.9638
-21.8793 137.6471 41.3125
-67.3621 89.9908 -23.8198
-82.7968 142.8615 -27.3628
-0.2651 97.9629 80.1604
30.3452 148.0236 24.9216
33.4115 73.6183 75.7792
39.4814 134.5173 71.7520
15.9089 130.6758 -40.2740
-78.8832 105.2003 -22.0010
1.0915 151.9022 -21.6232
27.6535 102.7826 54.9561
-10.7566 81.5276 -19.2583
-17.7880 165.3295 5.2958
8.0080 92.6172 26.8582
13.1414 132.3325 -36.2024
-70.8704 91.9758 -16.7085
28.2147 103.0508 74.7543
-4.6532 87.8267 14.7363
30.9261 98.9860 24.7324
15.7816 135.6015 -23.2269
-31.9401 147.1134 -44.0994
-21.3156 144.2243 37.1637
-73.8246 97.9859 -25.0512
29.3435 149.7800 27.0040
23.7025 93.5206 74.5186
-5.2210 108.1643 79.4997
-24.7530 153.9850 20.5183
4.4202 153.0121 16.0373
46.9750 119.3834 -2.8378
-96.7678 135.0803 -21.3137
15.5489 122.0675 -34.1785
-20.2097 107.2262 41.4074
-75.9371 143.1164 -27.1619
13.5851 112.0512 79.8868
17.2559 135.0597 -49.4485
37.7813 84.3248 83.4585
-37.7863 146.3032 39.1824
3.6875 92.6894 -11.1374
-58.6697 161.4940 0.1193
-51.7746 90.0027 20.1227
7.9827 103.5588 79.9706
-4.5052 99.2214 -44.9551
-55.8400 161.7939 1.8994
-20.9784 121.1696 -45.1523
-16.0919 92.2414 28.6381
-27.8334 122.6332 -45.0535
23.7927 53.7969 78.3754
-11.5649 158.9091 -2.3889
13.0668 111.0088 57.6550
-60.2392 159.6421 4.7728
27.2462 153.3269 -2.1554
6.8169 98.6704 -24.3845
-22.8407 71.3337 -0.2904
-20.9872 162.1829 -37.6593
38.0817 109.4294 69.8733
-59.9908 143.4763 36.6062
21.5532 107.9983 -49.9924
45.3551 135.8769 26.5846
-23.4313 114.8483 44.6820
49.2670 111.9729 41.3713
-54.6077 154.1957 -46.8915
-11.6506 161.4698 -38.7542
-16.4175 136.6427 -45.1928
-4.1263 135.2418 40.2872
-35.1324 83.6150 15.2588
-5.4372 107.1143 69.1004
-25.5357 78.6336 -31.6873
-29.4466 84.9461 92.8304
4.0621 140.8471 35.4039
-14.2806 110.5948 41.3978
-14.5136 163.9680 2.1970
11.8592 103.5009 41.9051
-35.3936 119.0908 47.5511
-9.0177 154.4505 2.4019
38.3668 101.6797 20.0088
-27.3664 154.1702 -48.6056
43.5227 149.1287 63.3451
18.8595 116.3389 -25.8396
-71.1042 97.1445 19.6784
51.1759 123.4330 65.6243
-44.6938 120.0596 48.2116
-10.2259 147.5723 27.7823
-58.5417 100.2378 -46.1709
49.4115 118.3893 4.4475
-83.0112 107.3808 1.6735
-42.6741 78.3505 -22.7248
-79.0237 127.3479 23.0668
36.6215 141.3085 70.5278
-30.2834 83.3473 91.7745
44.4037 149.1446 26.8895
-23.0269 90.3941 100.3948
53.2827 153.1395 37.4018
-68.5521 89.4700 -13.2906
-0.4917 100.0014 73.7392
35.5101 162.3047 49.7949
-76.3385 133.7109 26.0957
24.8555 78.2784 82.6057
-92.0571 113.9728 -13.4146
25.1413 92.2943 11.3011
-67.6890 148.1453 -32.8445
-78.0598 142.9862 -21.5609
-65.2283 154.3777 13.9462
20.2949 148.2862 32.3415
-0.8299 147.2491 -48.8872
-54.7991 92.3244 22.8822
36.8316 98.0187 13.6602
51.6047 125.4496 58.4898
-73.3263 99.0349 19.9818
-67.5071 149.0636 -31.0282
-35.4460 152.4839 -48.6703
5.8903 133.2942 42.7319
19.4805 101.1301 -49.7981
-19.0747 96.7178 -44.6903
-55.5999 108.1371 42.2334
-8.9136 153.2953 -2.9081
18.4716 89.4315 10.2831
-60.2289 84.2330 -23.2999
24.3996 151.7153 -7.4947
5.0011 88.4508 10.7712
19.6307 129.0959 -24.7621
17.3661 104.2902 -20.5903
16.6547 108.7358 67.3653
50.6677 131.5985 67.4078
24.9290 119.2101 -49.6988
-45.5407 85.0703 -38.1155
-62.9582 86.0529 -17.6277
-7.4088 92.6527 27.6835
20.8756 131.9269 -44.2420
-81.0892 112.0847 -41.8474
-1.7635 97.8462 86.7476
-36.6547 92.8575 -49.0459
-9.3728 89.7880 -28.8332
21.7404 106.2772 -50.0000
-8.4312 110.3057 77.0240
23.5565 104.0278 57.9884
20.9188 110.5902 -23.0513
10.9144 91.6411 24.9225
-76.2617 138.1700 23.2385
-36.8936 164.9745 -26.8155
-6.8174 147.8363 -30.1590
-38.8336 82.1754 14.1208
-77.3145 139.7393 -39.8973
-32.6966 105.5197 -44.4536
18.4633 102.5370 -18.6071
-1.5002 107.7193 90.8087
-45.7508 89.4324 19.4770
-21.3307 93.5777 91.1123
48.3902 144.7896 28.5991
-8.3891 129.1142 41.8075
19.2785 111.4565 -35.1025
-45.9649 127.6203 48.0517
-64.4478 91.9276 17.2606
7.3203 151.6363 -37.0997
32.0031 69.5919 90.8281
-78.9510 131.5600 -43.5112
-69.8170 96.4158 20.2229
49.1943 119.8610 28.3840
29.1050 65.7247 90.7613
-36.5773 112.5135 -44.6057
-78.6747 123.6255 -45.0036
25.1312 102.4411 48.7954
-50.1405 152.0628 24.0027
-41.3336 144.2709 40.6726
22.4514 55.1815 83.9904
33.0036 72.5378 74.6268
-31.2937 97.3584 -44.3628
-41.6408 102.8867 -44.1083
-41.2283 82.1766 -36.6028
-36.4337 86.4608 -47.8977
-36.3978 87.0679 16.9626
-28.0517 93.3028 -47.5498
-67.4588 90.9794 -25.1697
53.0019 134.5126 48.5556
26.6066 98.4596 75.7783
0.9106 93.4936 -11.9085
51.9061 135.4034 32.2723
-32.2873 92.9071 31.0153
-14.0628 74.1463 -11.6590
-53.4012 97.9955 -48.8898
12.3325 146.7256 -33.8615
23.3650 70.1101 76.3584
-32.8391 76.5233 10.5199
45.2386 112.7450 -1.2314
27.4378 103.8227 -46.4835
8.0064 148.1691 -20.3074
-46.3325 166.2168 -2.8673
-8.7664 81.4924 -40.0892
7.9390 100.5548 -29.7851
14.6138 88.4759 7.7271
47.5109 116.6501 28.1898
9.9881 145.5058 -28.9572
29.7026 94.2014 -4.2467
-15.7009 160.1085 -48.5689
23.3640 60.5237 86.1229
43.1155 106.3818 19.5098
-1.7282 101.6961 71.1638
-59.0133 110.1268 41.6209
17.5913 110.1084 72.0385
-79.2862 143.7920 0.6727
-81.3282 143.1480 -33.2887
-6.4055 88.1794 17.2577
5.9028 88.8023 13.1244
1.2394 101.4976 71.9196
-62.9767 107.9787 38.0767
-22.5954 93.3577 89.4654
12.1384 107.2179 78.9826
-2.9765 101.0544 38.1214
35.6434 133.5410 72.5265
-35.3761 87.5814 20.0922
-46.9724 76.7200 -6.5227
50.3462 125.8818 16.0611
-35.2963 167.0286 -19.4525
-94.0916 118.0027 -34.4300
1.1056 94.2732 -13.8698
10.2165 106.4751 -49.8513
-25.7241 164.5659 -16.1110
-55.2310 80.5480 -13.9568
26.4901 148.5648 66.4444
42.6505 152.9335 60.6459
-83.6766 137.6481 -38.1751
-19.3581 105.6451 40.5072
-14.8941 154.0983 19.5181
-30.6860 154.4806 19.2198
-18.1053 105.9405 40.4903
1.1052 150.7545 20.3255
-39.9574 126.6817 48.1643
38.8783 62.8962 91.0659
-41.1398 167.7646 -5.5222
-19.1857 71.6515 -6.7214
-73.4085 103.4464 24.7780
27.7502 118.7055 72.1359
-5.2775 80.2833 -45.4349
-53.4098 164.1942 -10.5319
-63.8045 158.4368 -8.1107
8.6661 121.0120 52.0691
-45.4938 107.4418 -48.1164
-66.1837 145.9472 27.9678
-62.8375 154.0246 17.7763
-73.1720 136.2591 29.7501
-80.6055 104.2311 -14.8705
-44.8846 156.3451 -44.3375
-13.8619 124.2176 42.7677
30.0093 153.5201 3.8098
15.0916 133.4782 69.2912
-5.9324 93.7352 30.1381
31.8245 133.4921 -17.9311
-63.5737 87.7254 7.4949
4.8689 103.7561 69.6171
38.1204 155.4929 60.6901
-65.5424 93.3476 19.0391
-19.4184 159.7338 -48.5939
-64.4232 148.9440 -39.5130
-7.5856 154.5718 5.4678
35.2134 104.4862 74.8463
-24.3745 133.4210 -45.0541
17.7932 100.7695 -44.7921
37.3673 99.3690 15.9242
-8.0676 148.4079 -23.6198
-66.7901 108.4551 -44.9432
21.8673 126.3085 -24.7666
-7.7465 160.0952 -39.1678
-23.0842 164.1587 -18.1375
36.5104 100.9318 21.4725
-69.1711 113.1380 -46.9643
-5.8862 149.4328 -48.8928
22.2078 150.2138 23.4930
12.3692 91.6876 -6.0731
-38.7671 90.1863 -49.3883
33.4737 62.4465 95.2007
-55.5398 127.1909 45.3037
-21.3009 102.6872 38.8936
-9.4761 150.8632 -32.0963
-28.2235 77.9247 12.1952
-76.5318 122.3294 -46.1964
-49.4168 106.1179 43.5376
-39.0310 165.3622 -26.4742
-36.3958 136.1082 46.0700
-84.5387 143.0389 -28.6656
45.7239 107.4839 10.8117
-31.2606 91.4727 -49.2256
43.7460 156.5654 55.8241
-54.4431 155.6920 20.6898
8.3275 98.8405 -24.2537
52.9591 121.1024 46.9077
-54.6697 87.8354 15.4862
-10.3952 75.7045 0.8271
-58.2040 124.3223 44.2244
-31.8725 168.7294 -8.8048
-89.5689 131.7872 -37.7364
22.6203 85.4851 75.7439
28.0545 101.9190 47.8080
-20.0570 156.4165 14.3999
-7.4119 119.5905 42.9229
-8.5994 83.0952 -49.8610
-13.4745 156.9747 9.5241
-6.6556 92.4228 27.1530
18.2412 149.7920 24.7256
-73.5468 138.9067 26.9133
-45.4370 78.9019 -20.4914
-39.8258 128.9373 -47.9708
-15.1625 94.9330 -44.6788
-46.2485 76.7734 -3.9401
-4.0951 145.4363 -48.7198
54.6732 128.6180 44.7051
37.1224 65.5339 87.7527
10.7371 104.9456 74.1102
45.5858 116.8898 67.5993
46.6257 130.2407 -2.0643
53.6888 125.1872 46.6251
-22.5932 135.8883 -44.9583
50.8588 148.7533 50.1479
18.9378 155.5745 10.9458
-4.4922 100.5473 93.5407
32.8522 69.2004 67.2310
-68.2053 139.9701 32.9122
-80.0492 142.0338 -8.5783
7.6369 94.3270 -45.5638
22.2624 105.1338 58.3966
-74.4683 149.6513 1.0775
-53.4693 113.8127 -48.4111
-26.8358 105.0959 42.1473
3.5219 150.1476 -28.8908
-68.6234 114.6765 36.1367
-11.2548 105.7023 71.7050
-17.7118 140.1291 38.5583
-41.1410 153.1649 27.0923
28.5749 84.2915 84.4485
49.9681 136.5502 53.6028
42.0203 145.8114 26.3496
-39.0870 168.7307 -8.9403
18.8833 129.3625 -49.6274
28.5950 53.1601 90.2911
51.0162 156.0301 35.7886
-54.6862 163.3094 -10.4891
3.9855 124.4654 45.5085
-67.8324 99.2945 26.7486
16.7573 148.5465 -14.6630
-59.7004 147.7626 29.2703
-7.1189 83.4654 -11.1861
-18.7861 162.8292 -47.9188
1.1110 153.5632 -46.3406
19.7689 151.7541 40.1282
-9.1187 112.7150 -45.1257
6.3244 89.3609 19.3234
-0.1636 98.5968 36.9755
16.7735 106.0881 50.9808
-33.9292 98.4431 37.7818
4.0533 90.2786 -49.8301
-42.2120 131.3657 -48.3329
-0.8919 88.1015 3.7986
-32.9244 146.5076 38.5997
37.2955 65.2380 93.4216
-81.3205 118.0351 19.2086
33.9512 95.0139 0.5113
16.3026 92.5596 25.5006
-97.0004 125.2718 -11.6270
-6.0195 108.0831 -45.0478
-10.9520 104.3906 94.4294
-5.1485 153.0058 0.3475
50.4340 127.3149 10.1329
-55.5391 159.9575 -24.2186
50.2688 121.1954 52.8280
-7.7938 90.4549 23.8820
-50.6411 99.1484 -49.0325
5.1780 134.6906 40.3274
23.3250 104.1737 61.0099
-25.8007 85.2863 15.2695
16.3669 149.2867 41.7807
-67.6713 146.8228 25.5829
51.6257 130.0187 53.1027
23.9284 151.5251 -8.2362
-16.5192 82.4486 -48.4058
-13.5892 94.5068 98.3219
-68.9010 133.8428 -46.0421
-23.9983 129.6778 -45.1500
-25.8271 167.4365 6.7196
44.5503 136.4254 23.9763
34.4063 152.4915 26.3988
-88.6566 136.1447 -35.7084
-47.8574 77.6527 -3.3603
41.5365 108.4180 58.2524
27.5832 123.0799 -23.1931
52.8532 152.0694 42.0257
-38.7437 157.1927 17.2649
-12.8527 102.2978 97.6886
-50.5833 94.8144 33.3453
-72.2550 142.1194 -35.2017
-21.6671 85.6198 -49.5357
36.9573 105.2790 72.5602
47.2277 140.6256 66.3887
-27.5887 91.8261 87.0846
46.9527 112.5604 9.4819
34.3477 85.3987 85.4210
-79.1096 143.5245 -7.3253
-31.6480 90.5781 -49.3634
10.0101 155.0786 7.6552
43.2939 109.2768 23.7799
34.7946 150.2076 13.6905
-56.0716 87.3336 -38.9361
7.4684 124.4584 50.1879
-7.9144 121.5024 42.8910
-60.5509 84.2601 0.6134
-38.2823 82.0783 -36.9471
-18.6436 127.7234 43.7121
28.3884 92.9443 4.2304
-87.0721 113.0045 -38.7564
-22.7180 133.0415 43.8594
-2.0608 117.0324 44.6099
-6.7270 137.3115 37.9887
47.3873 127.9048 -0.6106
-26.9030 105.7419 -44.6454
32.6917 119.4384 -47.7817
29.0995 91.4687 81.7832
-44.0061 76.6182 -2.9912
37.5578 103.7953 -8.9434
-28.2136 89.5641 82.8329
47.1114 137.6727 13.7948
-83.5105 142.9363 -32.1199
-47.9331 94.0328 32.9696
-9.9605 80.5271 6.2687
-84.8938 142.7500 -30.5122
44.2797 139.4148 -0.9592
-16.6594 107.0113 77.7405
-32.5540 164.8958 -26.0574
-74.3691 97.8101 11.6467
-6.0169 110.3623 70.1600
21.4695 152.7877 39.9423
13.8034 155.1338 -2.7744
4.1910 128.8991 43.9647
-1.3612 150.7862 -24.9899
-4.8909 85.8774 -4.3271
-0.2431 150.8333 19.7850
-51.8148 132.6196 -48.8253
-18.1809 154.7872 18.0161
2.5825 93.8793 29.5936
-43.1195 77.7097 7.5055
-90.7431 124.7095 -9.7464
-64.1047 155.2960 -23.4721
34.6608 155.0504 61.5068
-69.3827 100.1889 -33.7551
-0.5983 136.5403 -48.6283
-40.3366 101.4975 40.7197
-91.7875 135.2618 -33.0291
-42.3612 90.0038 -49.3377
-76.7446 120.0068 27.2328
-0.5894 82.3439 -43.7058
12.4054 107.3415 78.5446
-84.3691 112.7324 4.4641
22.9935 52.2538 80.3403
25.4871 93.1241 -6.4791
-24.4514 149.7411 31.3712
-9.2157 115.9246 42.0970
-12.4797 152.9294 -12.5920
40.7294 120.7683 71.2426
-70.9463 91.2879 4.5749
7.6792 102.2937 -49.8511
-81.7032 137.9606 -15.6189
-4.7094 105.2187 -44.9663
11.9634 124.6710 -30.2191
-20.4589 161.0656 -21.9849
5.2113 88.7590 -43.4005
50.2063 113.7369 38.1284
-42.8100 108.7798 45.7016
17.3795 127.8010 71.6378
-13.0384 150.9732 -31.3676
-7.3456 96.5274 -25.5343
-46.1623 163.6239 -27.0797
-68.2805 144.4392 -38.2744
-86.2072 142.3457 -25.2752
-33.6605 85.3814 -45.8816
-80.2755 100.6545 2.4855
-63.5741 122.7030 41.1174
-50.0371 81.7815 9.9181
54.6062 132.1992 45.4477
-13.9965 163.7315 -2.7645
-40.1629 103.2908 42.1905
-34.7142 103.8819 -44.3347
3.6608 92.8552 27.6767
24.5021 139.7553 -18.8985
51.9017 119.2458 48.8675
-64.1066 129.5907 40.4355
-55.3057 90.5056 20.7221
-23.4361 116.2752 44.9298
45.3614 117.9130 68.4942
-70.0218 153.3853 8.2861
23.3184 98.8044 68.4061
26.5555 102.5115 -15.6087
-78.1073 107.8431 -40.6775
49.9851 121.7509 11.7074
22.2898 106.9270 -38.9537
-74.3311 124.3431 30.5002
-83.1381 138.3757 -37.9428
-21.0880 110.2870 42.6493
-2.2096 104.8274 92.2892
-56.8312 113.4415 -48.6480
-10.8755 149.3297 25.6870
-93.7354 134.2710 -13.6055
-0.5640 142.3621 -49.0081
43.1975 138.3679 24.1776
38.0867 100.2836 16.7516
-77.9574 102.5253 12.9248
18.9650 145.0040 -17.4765
17.9841 140.1513 69.9203
1.3420 151.2078 19.1123
-1.0708 99.6178 -33.0650
30.5649 119.6971 -21.6365
22.0391 129.9914 -45.0463
49.1800 120.8360 3.2255
-37.1292 118.1904 -46.0244
-27.4813 84.3688 -44.3034
-42.5044 86.4150 -46.4391
-13.8746 88.0552 22.2134
6.6484 143.0882 32.8025
-87.1357 108.7738 -35.6277
-14.0062 150.8831 -28.1914
-10.2997 83.1790 8.2269
-68.2607 99.1135 25.9837
15.1995 153.0858 -7.6613
-43.6407 80.5791 12.2056
-25.5917 151.5157 29.0595
35.3676 98.7815 63.0416
-6.5966 102.9934 38.2023
-41.8988 135.7976 -44.8527
-36.1537 161.4958 -34.2582
41.4901 128.3461 71.7494
-59.2233 158.4209 9.4142
-61.5253 134.9344 41.0127
47.7736 120.2820 22.4453
-48.0668 90.0187 19.7725
-16.0367 154.7305 -19.9956
-97.3491 120.4840 -12.4483
-79.5679 141.3672 -24.9630
-13.5754 150.2413 -28.2962
5.2765 153.5433 -48.2852
-59.2423 128.7349 43.4416
-13.5210 102.4165 37.8146
30.0492 71.9221 88.9937
-53.2810 87.8399 16.4532
16.7810 138.4417 -49.2017
-83.4785 131.9868 8.5405
9.8996 113.1448 50.7201
-0.8807 120.0943 -49.2151
-14.3926 107.2432 73.5787
-75.7591 96.4276 7.7239
-82.8989 123.8160 14.6962
27.0735 92.2809 -0.7547
-61.2757 113.2026 -48.6826
-35.7105 73.6758 -2.6357
1.6482 136.2585 39.7639
-18.9756 73.2664 -16.1722
31.0140 62.8075 76.1703
-15.1185 75.9480 7.7424
-0.2775 154.3889 1.6294
-96.9564 130.5460 -30.0456
-32.6394 93.3149 31.4154
-58.8440 107.8522 -48.4801
28.9027 153.8922 6.5056
28.5706 102.0103 -13.9380
-65.2534 102.0405 -38.8064
53.7089 137.2671 45.3239
29.9377 108.2619 -18.0102
-8.9110 133.9482 -47.4958
-1.6579 123.3370 44.5423
-53.4525 142.1667 40.5322
35.2493 88.8260 70.6714
-42.5897 86.4941 -41.3548
-89.5435 138.9749 -18.0492
24.3301 156.8836 36.0326
54.5265 125.2119 35.3648
-55.9727 95.3907 30.5445
5.4081 102.5857 72.1600
-67.6318 117.6060 37.5640
32.6323 119.3996 -46.2045
20.4891 135.9979 71.5931
-7.9433 96.7848 77.2877
51.3779 149.3575 47.4862
10.2953 132.3462 52.5160
31.5605 164.0457 39.5939
34.8524 81.5268 74.9459
-68.7290 151.2751 -25.8128
29.9802 122.9082 -47.8289
41.5135 107.3835 24.9345
-10.9376 121.0143 42.3520
-67.2056 151.4814 -27.5099
14.6021 145.1830 -34.3146
0.2138 86.5582 -49.8413
33.9294 103.6590 31.5693
45.5507 145.5354 64.6307
-23.1164 71.4515 0.5866
-48.4219 77.4841 -8.4483
32.8486 68.0591 79.8700
-24.5714 147.7923 -44.2197
28.5094 131.8079 -21.1795
4.1259 93.4813 -49.7559
34.6279 164.1919 38.9289
-68.8022 111.9020 35.2436
49.6988 119.6030 4.9322
-84.6556 133.0414 -40.2616
19.0192 115.4668 -34.0513
50.0978 125.4065 17.1205
-19.9533 79.7303 -31.5005
-21.8951 142.1315 -44.6124
-97.6025 118.8942 -13.4688
11.8873 142.1363 -24.9612
-7.8671 142.1373 -45.5541
-37.2575 75.2743 6.1930
39.3120 107.7137 63.1176
-98.8401 130.3951 -22.3097
39.4367 78.6710 83.8516
-11.6352 153.6346 18.7906
-13.6210 152.5809 -31.8237
-24.2792 153.6913 22.4263
29.6673 163.3306 40.0412
-23.5603 165.8559 -11.4937
21.9965 124.3268 72.5504
-55.3809 154.4014 -45.1482
-68.7117 121.0152 -48.4851
-14.9882 100.7077 83.3185
24.0180 83.4855 67.2563
-99.1398 117.4870 -21.5818
-8.2381 107.4934 70.4381
6.8557 104.3440 -49.7945
13.1473 134.0739 56.2790
50.5051 127.9689 9.6735
-74.0167 95.3295 -17.3388
23.1417 57.0391 80.6600
-26.1135 135.8785 -44.9208
-27.3744 149.9849 32.3432
-86.8404 110.8914 -16.6632
27.0156 127.5095 -22.9726
-6.6933 152.8868 2.0792
46.9316 114.9398 20.4591
-39.4784 74.8320 1.0054
-11.9233 158.1449 -48.4710
-36.7009 152.8727 28.8193
53.1862 140.7555 43.8296
11.8703 97.9322 36.6898
-63.8112 92.1570 18.5863
-62.4504 94.6944 23.2158
-43.5904 95.4712 -48.3505
-93.5832 119.7319 -35.2559
34.4285 151.3969 8.5173
-8.0027 106.7880 92.7632
30.7424 71.9181 89.3315
-11.1805 86.9268 15.2086
33.8117 86.7196 85.0490
-7.7661 90.3789 23.7786
19.4522 96.1219 -13.7939
-12.9238 153.7064 -12.8021
21.7981 147.3624 -36.6942
-38.6099 83.1270 14.7700
-74.2761 130.7071 30.0954
-40.7992 99.5807 39.0659
-50.4976 79.1643 -6.4417
27.3752 71.9677 87.0967
5.4329 115.1037 82.4122
32.0262 138.2405 71.9659
36.5717 100.4361 -4.2681
-70.0898 130.3512 35.1753
40.6117 163.5162 42.9881
48.2482 157.4066 45.8344
19.6473 134.3933 -40.2087
-13.6655 141.3155 36.1330
48.6861 112.6818 47.7726
-35.2462 75.1951 -14.0234
29.7248 93.1427 0.9709
-58.3510 82.0320 -16.0308
39.7101 111.1230 -9.9396
-12.6028 101.1141 84.6696
-25.3500 73.0305 -15.5716
13.0023 94.0968 30.2355
-34.7518 104.0641 43.3667
-13.3109 87.0612 19.2623
46.3793 149.2145 60.9279
-59.9032 83.7940 -6.8609
-89.2473 106.9961 -30.5745
22.4425 54.4606 87.5224
-29.0292 158.6021 -48.3722
44.2598 151.9266 60.3320
35.2247 79.9160 67.7502
-79.5554 143.4800 -1.4880
8.2171 153.6953 -6.4504
11.7344 105.7992 71.5882
41.1847 109.6991 63.6320
-86.6868 130.7958 -11.9134
34.8691 81.5947 69.7028
31.4749 119.0159 -43.3271
-14.7036 147.4131 29.9146
-46.8526 165.9199 -17.7023
-33.2520 82.9029 14.9814
-12.8461 93.8233 29.3329
-84.5795 104.7724 -31.1207
-51.4531 164.5390 -13.8701
-37.8298 112.0822 46.7930
11.4790 144.5943 -31.8887
-50.3344 96.7858 -49.1937
-20.5399 165.4081 7.9940
33.9567 89.5655 63.9650
-64.2226 130.9737 40.1342
-44.5407 88.5422 16.9888
-5.3158 96.1975 79.4807
44.5894 126.4445 70.7673
-37.7092 158.4828 -37.1159
-38.8287 83.6594 -38.0272
-10.0977 102.4957 -45.0054
30.4316 66.3466 67.7500
-76.3821 97.1817 7.7235
-7.7253 93.8878 -24.7705
25.8076 126.4757 -48.7237
26.4923 155.4706 30.9588
0.1557 115.8806 71.7939
17.1979 123.9259 -49.8136
-21.0511 163.1652 -40.4055
16.9610 117.9689 -29.5909
-5.8191 152.4321 -34.8754
-16.6546 100.1547 83.1660
-73.3849 150.3947 -8.1110
8.9717 93.8584 -9.4114
46.2699 116.5230 -2.6624
18.0030 114.9262 -26.7859
14.1978 108.8648 63.8097
51.4425 126.9486 52.8952
-7.3067 88.2552 -15.8553
5.0864 110.8219 63.4552
47.5007 113.0541 15.2448
-13.3819 106.3004 72.6486
16.8835 90.4407 -4.1944
-65.3260 155.0693 -21.2406
16.6704 98.4775 35.5667
-47.9238 78.5982 -13.6497
10.6362 107.1052 -49.8228
29.4846 151.8902 27.5842
2.0896 110.7436 -49.7005
26.7799 160.4142 41.2481
24.8996 150.3815 -42.6443
-73.8660 111.3861 29.5344
-10.9577 75.3756 -8.2107
6.3149 111.4406 85.3401
13.4189 89.1075 17.0843
-53.7650 87.7606 15.8097
33.4483 121.4161 -19.5440
15.5730 144.7379 49.3836
-23.2616 163.5961 -21.5707
31.4777 112.7248 -49.4969
45.3957 108.0227 36.2596
-14.2751 136.5783 -45.2025
-61.7858 88.4756 -33.7734
0.8092 149.5257 22.7959
6.1698 97.6315 -21.7161
34.2037 142.5025 70.4450
-3.7189 156.0457 -48.1006
-39.2098 103.7516 -44.1838
9.1397 97.9860 -19.7166
19.9508 90.9007 -3.3381
44.0390 139.5852 68.8613
-7.1496 82.8220 -10.0922
24.1583 152.5537 18.6073
33.5828 149.3079 -3.2965
20.1082 108.2775 61.7525
36.8042 104.5082 53.5387
-77.1327 144.1841 -22.2799
24.5966 148.7408 64.3959
5.9282 153.7094 12.6233
23.0012 91.4311 1.7716
-8.3881 80.8352 2.9390
-62.6231 156.5465 -23.2266
-58.0405 93.8607 23.8437
-27.0439 86.3659 96.6614
-36.6179 137.5260 -44.6254
-74.2064 111.6322 -44.9285
25.6579 150.0576 29.4798
18.3349 143.0636 66.4819
0.3084 81.1151 -49.4606
-36.3836 164.7632 -24.6080
-47.4445 103.1622 42.0912
-58.2245 88.5628 -39.1157
45.2118 135.8429 -1.3062
-34.9871 156.1566 17.5829
0.0857 98.8442 76.2746
-75.1514 138.2077 -41.7594
28.0906 152.7866 -2.4694
36.2351 151.7233 64.6583
