48.567001 162.061005 19.981001
-36.160000 89.723999 -4.384000
42.298000 96.876999 -22.148001
36.418999 93.934998 -22.429001
33.422001 100.500999 48.526001
-10.730000 164.348007 -22.139999
-30.615000 161.278000 -11.709000
-78.718994 136.113998 -41.095997
19.134001 151.199005 -63.435001
13.530000 151.529999 -64.058998
35.705997 107.952995 45.965000
56.331001 132.791000 39.355999
36.858997 137.082001 44.920002
43.074001 137.317993 44.176003
-25.381001 161.317001 -11.979000
-63.507996 106.412003 4.953000
58.875999 144.160995 7.040000
-0.310000 156.964005 -65.765999
0.350000 145.328995 2.591000
18.700001 145.674011 3.052000
-77.193001 107.919998 -28.178999
-13.147000 131.768005 15.299000
-66.215996 140.306992 -66.792000
11.908000 103.165001 44.549000
-4.968000 93.121002 63.270004
-60.274002 88.408997 -22.542000
-2.606000 86.079002 -18.415001
56.543999 124.829002 39.257999
-71.609001 137.412003 -5.596000
-41.848999 136.531998 18.353001
-6.774000 84.160995 -16.417000
-5.439000 159.270004 -63.134998
-18.425001 159.036987 -62.643997
-30.439001 159.826996 -63.335003
-37.197002 160.921005 -62.962002
-40.913998 160.052994 -63.332001
24.736000 143.574997 39.034000
38.639999 159.783005 25.738998
47.634998 102.454994 -16.763000
-71.514999 141.459000 -64.851997
-8.106000 99.900002 72.281006
-10.378000 99.701004 72.517998
-36.662003 137.101990 18.429001
29.183001 107.284004 39.071003
25.718000 150.300995 -64.016998
1.957000 152.141006 -63.588001
-13.934000 159.272995 -62.077000
-24.934000 162.486008 -58.554001
-30.463999 163.500000 -59.287998
-36.219002 163.552002 -58.951000
-42.468998 161.938995 -59.000999
-77.812996 113.401001 -16.413000
55.186001 125.558006 0.396000
55.093002 143.638992 33.310001
-77.500999 131.332993 -16.938002
-77.082001 125.376999 -12.683001
31.668999 107.859001 43.082001
18.301001 147.852997 -61.640999
-0.307000 149.254990 -58.890999
4.306000 125.953003 16.730999
-24.363001 156.729004 -10.016000
7.639000 124.122002 17.698999
37.777000 105.498001 48.007000
-6.798000 155.412003 -60.563004
-12.322001 156.292007 -58.722000
-16.562000 158.406006 -60.192997
-18.669001 160.820007 -57.948002
29.209999 101.740005 39.255001
57.431999 116.995003 14.015000
-7.850000 79.157005 -18.367001
37.544998 57.948997 62.230000
25.467999 107.441002 32.514999
60.935001 132.363998 13.643001
-67.133003 108.018005 1.732000
18.076000 137.035004 25.840000
-24.563000 146.775009 10.482000
28.300001 84.765999 44.948002
52.834999 131.320999 -5.047000
56.129002 143.406006 27.889000
-6.612000 131.528000 13.186999
-67.622993 143.797989 -59.174000
-73.556000 142.987000 -59.443001
-78.360001 142.675003 -58.056999
7.106000 142.661011 6.451000
30.261000 71.653000 44.828999
-61.294998 151.722992 -10.316000
-5.846000 94.957001 68.557999
42.458000 149.113007 -16.487001
-47.265999 131.112991 18.483999
-18.157000 155.880997 -10.874001
-24.261000 131.382004 19.000999
17.814999 144.197006 -59.027000
12.727000 148.715012 -58.398998
7.571000 150.095993 -57.996998
-6.330000 150.027008 -58.053001
-76.920998 109.177002 -17.607000
48.952999 156.143997 1.966000
58.637001 119.815994 7.338000
-28.940001 147.014999 10.996000
-48.163998 125.031990 18.705999
-17.618000 100.980995 51.171001
44.454998 107.341995 38.987000
53.107002 109.047005 14.053000
-48.794998 138.255005 15.341000
5.462000 135.694992 13.044000
5.606000 139.084000 10.521000
-0.933000 139.051010 9.520000
-18.524000 142.359009 12.393000
24.858000 149.388992 6.971000
29.224998 84.314003 51.144001
48.386002 155.199005 30.921999
-68.501999 145.315002 -10.646000
-64.614998 141.738998 1.433000
0.149000 142.175003 6.713000
26.208000 142.065002 42.757999
14.697001 146.936005 -57.054001
25.597000 113.416000 45.671001
-12.310000 156.830002 -52.841999
49.309002 161.271011 14.004001
13.271000 145.529999 2.913000
-22.702999 82.970001 68.945000
-68.201996 93.682999 -21.273001
55.753998 125.612007 -10.366000
-59.156002 131.450989 12.177000
54.966000 119.129005 -10.440001
31.557001 137.054001 44.800999
43.411003 113.296005 43.356003
24.258999 136.929001 43.428997
-6.732000 125.309006 15.012000
42.947002 131.604004 45.065002
42.900002 71.122993 56.471001
43.758999 100.386002 -10.488000
-18.061001 162.707993 -51.632999
-23.223000 164.261002 -53.083000
-29.929001 165.093002 -52.850002
-36.437000 164.585999 -53.824997
-42.259998 163.702988 -52.667000
-74.520996 101.782997 -28.639000
-72.973999 142.615005 -53.080002
42.814999 159.192993 28.619001
-0.998000 101.164001 9.662001
-13.984000 166.481003 -22.561001
41.358002 101.735001 48.753998
30.564001 131.720001 45.393002
42.814999 142.960999 42.383999
-24.661999 135.819000 18.010000
-61.650997 100.886002 1.520000
11.705000 149.472992 -51.395000
7.071000 150.919006 -52.767002
0.564000 149.421005 -52.313999
-6.153000 148.945999 -52.170002
-8.568000 135.259995 12.196000
49.098999 131.330002 43.637997
-24.586000 113.769005 18.686001
-54.188000 125.481995 15.937000
6.058000 102.323006 62.633999
-5.008000 145.492004 3.302000
-14.071000 141.390991 11.292001
35.734001 59.255997 50.958000
18.245001 125.529007 39.342999
-17.796000 145.621994 9.434000
-80.173996 142.156998 -52.485001
43.588001 125.503006 -42.174000
-23.757999 84.223000 62.508003
-12.115000 95.606003 74.096001
43.223000 149.004990 -22.498001
20.593000 121.786995 -58.570999
-11.484000 126.270996 16.104000
48.610001 137.167999 42.674999
-12.111000 107.808998 13.751000
-6.593000 107.501999 12.748000
-2.225000 97.364998 67.079002
-25.930000 166.047012 -50.912998
-32.339001 166.206009 -50.592003
-36.230999 166.244995 -50.742001
18.368000 144.394989 7.402000
-36.453999 125.652000 20.901001
-78.029999 125.836998 -16.455000
54.634998 119.239998 1.138000
37.002998 95.880005 33.378998
48.667999 142.994003 -16.354000
-6.465000 138.285004 10.095000
20.587000 136.056000 39.250999
46.605000 103.015999 -11.212000
-42.649998 146.808990 9.663000
-36.290001 149.449997 7.251000
60.194000 131.368988 7.777000
7.563000 145.826004 2.512000
48.788998 125.383003 43.771000
29.167000 77.729004 44.485001
12.822001 101.736000 13.903999
-11.395000 106.457001 49.959000
32.191998 64.112000 62.049999
42.831997 125.586006 45.167000
31.070000 84.201004 38.327000
24.769001 131.806000 -51.371002
0.115000 136.118988 11.901000
49.229000 119.931000 42.716999
16.570000 139.412994 21.700001
-42.250999 119.365997 20.379000
-17.945002 164.092010 -46.289001
-24.709000 166.399994 -45.702000
-30.181000 166.998993 -46.716999
-36.355000 167.113007 -46.408001
-40.814003 166.057007 -45.556000
-19.112000 148.552994 6.254000
-30.437000 149.792007 7.366000
-24.785999 149.283005 7.099000
19.858999 131.380005 -53.544998
54.829998 131.726990 -10.330000
-0.991000 87.986000 -11.014000
-75.935997 140.944000 -50.344002
-85.766998 139.763000 -52.677002
-74.790001 101.425003 -22.966999
24.726000 137.815002 -48.702003
19.604000 137.410004 -51.667000
14.294001 125.581993 24.809000
-36.664001 161.158997 -12.412001
-48.492001 145.522995 8.925000
11.908000 149.830994 -46.410999
5.981000 152.129990 -46.289001
-0.361000 150.358002 -46.450001
-6.405000 150.250000 -46.268002
54.730999 137.567993 38.762001
30.643999 101.777000 32.716999
-36.288998 146.855988 10.434000
49.302002 157.416000 27.434999
-30.813999 140.848999 16.289000
-69.013000 106.192001 -2.219000
-55.348999 146.410995 3.419000
4.527000 97.915001 51.237000
19.207001 144.778992 -46.354000
-59.303001 125.098007 12.657000
11.712000 119.733002 20.467001
42.348999 107.610001 44.643997
40.484997 83.223000 45.720001
49.876999 107.174004 -9.939000
43.280998 65.444000 63.225002
-41.889999 148.750000 6.268000
-13.339000 90.171005 74.070999
13.142000 139.268997 9.696000
18.101999 101.860001 13.000999
-54.641003 93.607002 -4.913000
60.431999 125.859009 13.770000
-74.888000 139.751999 -46.139999
-80.101997 139.271011 -46.369999
-86.070999 139.100006 -47.315002
13.384999 107.862999 57.605000
53.486000 113.647995 -16.301001
43.942001 83.993004 50.841999
6.180000 107.369995 15.960000
-6.298000 156.287994 -34.292999
25.366001 92.998993 -3.705000
41.402000 103.506996 0.843000
30.833000 91.983994 -21.899000
-0.912000 85.175003 -22.601000
-36.686001 166.822006 -40.708000
-43.744003 164.472992 -47.045998
-76.699005 113.394997 -12.720000
37.393002 131.923996 45.527000
24.989000 149.149002 -40.488998
36.892002 101.079002 1.588000
24.736000 89.879997 -22.518999
10.875000 88.822998 -23.000999
15.380000 148.112991 -44.704002
-36.123001 140.830994 16.194000
-57.397999 139.587997 10.333000
13.491000 142.158005 6.751000
58.123001 130.878998 32.644001
57.327000 137.026001 33.142002
16.142000 120.483002 33.305000
43.664001 95.927002 45.113003
53.403000 119.593002 -5.083000
49.419003 107.720001 20.931000
4.996000 90.577995 -4.310000
48.966003 107.357002 8.124001
-23.196001 73.207001 -23.047001
-25.535000 74.367996 -20.875000
24.481001 94.530998 1.052000
-47.435997 91.333000 -4.924000
-30.143000 88.196999 -5.282000
7.532000 152.707001 -39.744999
0.072000 151.695999 -39.666000
-6.156000 151.750000 -40.580997
-17.233000 133.606995 16.403999
-14.365000 124.098999 17.219000
-18.435999 165.233002 -41.239002
-24.102001 167.010986 -39.986000
-30.434999 168.259995 -39.623001
-41.816998 166.375992 -39.290001
-43.682003 165.483002 -41.363998
-1.035000 108.314003 42.681999
-77.027000 136.136993 -22.566000
25.224001 102.906006 14.165000
-13.000000 88.670998 -3.672000
4.867000 87.783997 -22.775000
48.144001 108.986000 2.677000
4.652000 101.825996 44.061001
-31.302999 75.249001 -21.724001
-42.470001 88.437996 -10.524000
13.278000 151.293991 -40.667999
44.567997 145.943008 40.527000
-48.331001 147.501999 5.409000
42.601002 101.947998 -4.416000
55.097000 150.113007 27.122000
36.882000 102.139999 20.561001
-75.367004 139.599991 -40.357002
-84.848000 136.414001 -42.284000
58.826000 150.093002 14.096001
-46.932999 135.773010 17.387999
37.033001 101.903999 14.704000
36.964001 102.306999 8.014000
38.539997 99.267998 -4.412000
31.268002 53.405003 50.781002
-79.797997 132.391998 -39.204002
20.396000 125.952003 42.780003
-19.142000 166.141006 -38.250000
5.977000 97.356995 7.795000
-5.378000 77.630997 -22.710999
-23.851999 89.485001 57.536999
11.157001 102.889999 56.607002
17.881001 107.156998 50.877003
36.806999 53.730000 68.586998
31.041000 70.821999 57.684998
-24.483002 119.834999 19.422001
-35.624001 76.497002 -22.680000
-6.540000 93.296997 56.542999
19.169001 107.029999 44.337002
42.732998 103.750000 21.019001
42.529003 137.283997 -39.726997
-24.676001 87.866997 -4.837000
18.495001 107.941002 38.583000
-17.058001 89.290001 73.932999
-12.881000 162.757996 -40.153999
47.908001 160.250000 9.356001
29.080000 95.684998 39.216999
49.681000 138.063004 -4.207000
-22.309999 91.966003 52.864998
-30.518000 156.359009 -9.570000
30.118000 142.582001 -44.665001
17.768999 88.996002 -23.329000
19.605000 152.438995 -36.680000
13.072000 152.850006 -35.046997
-11.115000 163.748001 -34.681000
-18.293999 167.073990 -34.311001
-24.423000 168.302002 -34.054996
-30.432001 169.182007 -33.982998
-36.903000 167.307999 -33.741001
-42.036999 166.445999 -33.962997
-6.305000 107.690002 45.499001
29.880001 52.625999 56.662998
53.965000 119.740997 33.507999
29.260000 63.624001 51.580002
-70.440002 113.370003 -0.320000
40.972000 102.070999 33.344997
-9.017000 97.209999 73.124001
46.909000 125.764999 -39.170002
31.024000 151.354996 -34.561001
25.412001 152.819000 -35.338001
19.000000 154.053009 -33.344997
15.069000 153.998001 -33.783997
8.066000 153.616989 -33.330997
6.072000 153.229996 -35.236000
0.059000 152.177002 -34.240997
29.355001 57.663002 51.445999
-71.575005 96.848999 -22.611000
30.855000 150.341003 -71.074997
19.238001 99.799995 10.618000
40.381001 73.624001 52.225002
15.658001 119.616005 28.663000
16.147999 109.006004 55.310001
37.544998 65.636002 50.891998
-58.614002 136.201996 11.233000
-14.068000 166.532990 -32.614998
-6.883000 101.603996 9.928000
28.367001 89.924995 45.023998
49.047001 143.126999 -0.422000
35.737999 59.859997 45.596996
28.855999 71.087997 51.642998
54.819000 137.178009 3.086000
24.110001 154.352997 -32.014000
-3.585000 152.834000 -32.457001
34.333000 154.210007 -23.047001
58.765003 125.944000 21.167000
54.469997 131.638000 1.025000
15.923999 125.512001 28.581001
-0.722000 95.795998 62.604004
53.201000 125.631004 42.134003
44.535999 145.901993 -10.692000
60.125000 125.869003 7.687000
51.479000 133.570999 -2.707000
-12.361000 166.927002 -28.596001
-18.433001 167.981003 -28.530001
-24.431999 168.403992 -28.499001
-30.429001 168.182007 -28.511999
-36.903999 167.471008 -28.964001
-41.676998 166.347992 -27.725000
-43.669998 165.369003 -29.422001
6.421000 101.928001 13.249000
58.827999 119.737999 14.052000
10.243999 131.669998 15.474000
48.613998 107.998001 -4.844000
32.873001 153.161011 -29.955000
30.564999 154.692001 -27.047998
25.110001 154.684006 -28.125999
18.691999 155.343002 -28.465000
13.327000 154.662994 -27.860001
9.066999 153.044006 -29.643999
7.061000 153.815002 -27.705000
3.082000 154.152008 -28.139999
-1.225000 152.829010 -28.300001
52.972000 131.166000 42.264000
-9.863000 146.084000 4.698000
43.057999 156.876999 0.968000
42.959999 102.417000 39.053001
42.050999 77.936996 51.138000
-4.856000 156.987000 -27.891998
52.853001 113.564995 -9.920000
-54.517002 161.126007 -28.296999
46.760002 108.416000 32.411003
-41.870003 101.931000 13.690001
-48.183998 163.628998 -28.129000
28.566000 78.063004 50.452000
47.327999 141.516998 41.783001
-30.469000 113.514000 19.555000
-18.067001 167.276993 -22.237999
-24.431999 167.746002 -22.819000
-30.432999 167.565994 -22.650999
-36.444000 166.993011 -22.188000
-41.771999 166.270996 -23.336000
-24.453999 76.875999 -16.552000
-64.857002 135.727997 6.013000
42.631001 120.112000 44.619999
-59.209999 103.428001 6.059000
31.229000 155.428009 -22.433001
25.567001 155.632004 -22.417000
19.566999 155.856003 -22.403999
13.113001 155.035995 -22.559000
7.067000 153.810989 -23.031000
-0.250000 154.376999 -22.151999
-5.381000 157.080002 -22.752001
-48.492001 162.492004 -22.539000
-54.025002 159.949997 -23.604000
36.841999 151.659988 -28.330000
-3.736000 82.032997 -21.028999
-9.815000 99.153999 68.525002
47.510002 143.059998 -10.688001
59.404999 131.428009 19.966002
42.748001 90.300003 45.483997
-48.087002 119.153000 18.679001
-43.912998 164.917999 -20.950998
39.150002 71.772003 50.535999
-1.155000 92.260002 -0.326000
21.587999 138.509003 39.390999
38.206001 152.181992 -22.391998
9.061000 153.326004 -21.183001
-54.223000 159.149002 -20.968000
-60.748001 108.060005 8.128000
-61.951000 126.954002 10.395000
-24.431999 166.647003 -17.657001
-30.517000 96.314995 8.010000
55.090000 143.511993 2.516000
37.945000 152.244003 -16.886999
30.674000 154.666000 -17.166000
25.068001 155.337997 -16.302000
18.156000 154.955002 -16.733000
13.130000 154.327011 -16.927000
8.062000 153.244003 -16.475000
4.343000 154.205994 -17.384001
-0.143000 155.104004 -16.140001
-7.048000 155.774002 -16.399000
-19.268000 166.106995 -17.754999
-30.233000 166.501999 -17.627001
-34.933002 165.870987 -17.528999
-37.105003 164.247009 -15.642000
-42.585999 162.638000 -16.538000
-55.084000 158.037003 -16.938002
36.868000 64.829002 63.764000
-2.840000 103.693001 58.181999
19.389999 113.683998 51.931999
55.667999 131.518997 -16.706999
29.195999 52.104000 62.395000
10.954000 90.527000 -4.794000
33.066998 153.169998 -15.539000
-0.991000 125.392006 15.698001
-18.181999 162.526993 -14.551000
-23.675001 164.298996 -14.666000
-30.382999 164.496002 -14.379999
-49.848999 158.755005 -15.009000
54.226002 125.542000 -5.526000
36.513000 148.866989 -34.394001
-69.237000 98.683998 -14.858000
-70.926003 141.966003 -10.563000
19.591000 131.449005 39.342003
57.162003 143.584000 21.048000
37.542999 83.878006 36.591999
10.903000 88.449997 -17.209999
6.662000 119.811996 17.900999
37.576000 150.529999 -10.441999
31.877001 152.443008 -10.592999
25.567999 153.750000 -12.667999
19.564999 154.011993 -12.654000
13.566000 153.951996 -12.651000
7.419000 152.183990 -10.316000
-1.095000 154.238998 -11.910000
-7.483000 154.612000 -10.874001
-12.222000 155.136002 -10.731999
-40.924999 159.541992 -12.367000
-42.456001 157.713989 -9.608000
-48.737000 157.961990 -10.709000
-54.246002 156.104004 -10.650000
31.403999 102.330002 20.792000
40.601002 78.380005 40.114998
59.815002 137.557999 14.168000
29.895000 49.681000 58.375999
43.687000 90.448997 51.771000
25.138000 143.078003 -45.961998
-71.197998 120.407997 -0.334000
16.927000 88.820999 -17.128000
25.567001 153.154007 -9.174000
18.236000 152.466003 -8.736000
13.496000 152.834000 -9.392000
1.788000 152.080994 -8.752000
-36.278999 157.160004 -9.782001
42.049999 96.335999 39.595001
45.507000 105.461998 -2.591000
-8.282001 92.000999 58.264000
38.028000 160.714996 2.975000
41.348000 148.503998 -10.963000
56.862999 125.346008 26.495001
-6.972000 151.893997 -4.834000
-12.431999 153.676010 -6.317000
-18.907999 153.768005 -5.120000
-24.436001 154.271011 -4.497000
-30.533998 154.602997 -4.835000
-35.881001 153.704010 -5.096000
-42.885002 154.616989 -5.814000
-48.420002 155.052002 -5.948000
43.790001 145.777008 -4.578000
37.431000 148.876999 -3.772000
31.869001 149.798004 -4.140000
24.961000 151.250000 -5.094000
19.504999 150.560013 -4.272000
12.735000 151.200989 -4.920000
6.591000 149.615997 -3.928000
-0.319000 150.162994 -4.395000
-52.731998 153.913010 -5.947000
16.712000 113.584000 27.023001
-60.038998 149.121994 -4.806000
-77.301003 107.614006 -22.278000
25.608999 146.946991 2.486000
-11.930000 152.132996 -2.866000
-16.934000 152.746002 -2.836000
-37.934002 152.651001 -2.799000
-41.990997 151.769989 -2.488000
-48.427998 152.002014 -2.927000
-54.733997 151.659988 -4.676000
0.237000 107.334000 57.125999
25.350000 104.006996 20.988001
10.923000 89.189003 -10.411000
-18.698000 84.095001 68.887001
-49.387001 92.935005 -2.540000
30.416000 103.387001 27.402000
-0.334000 95.163002 57.144001
30.938999 101.954994 14.642000
-0.846000 96.474998 51.275002
35.139000 149.936005 -0.325000
30.920000 149.608002 1.478000
25.943001 148.104996 1.365000
19.570000 148.072006 -0.245000
13.432000 148.603012 -0.437000
7.555000 147.805008 -0.221000
-1.423000 147.761002 -0.249000
-25.941999 153.365997 0.000000
-28.937000 153.375000 -0.003000
-58.432003 147.562988 -0.106000
-59.348000 91.796005 -11.188001
36.300999 156.434998 1.436000
12.175000 107.417999 38.117001
31.872000 92.950996 -15.928000
57.238998 138.501999 22.462999
-0.278000 86.937004 -16.243000
24.146999 89.915001 -16.556000
-13.370000 163.940994 -70.997002
-13.061000 161.901001 -75.428001
42.987000 103.265999 15.230000
-12.838000 96.749001 56.834000
-59.286999 142.245987 6.134000
-19.501001 89.672997 56.473999
25.319000 109.378006 39.084999
-47.848000 155.056992 -71.191994
-66.723999 143.680008 -5.244000
31.316999 99.195007 3.596000
18.653000 155.650009 -75.340004
-18.425001 162.072006 -71.507996
-23.937000 160.271011 -72.221001
30.421000 156.165009 6.914000
23.874001 143.878998 26.147001
-52.338997 153.567001 -70.623001
17.389999 143.980988 13.676000
-15.167000 92.973999 70.168007
31.698000 78.146004 39.625999
-66.725998 150.738998 -17.028000
12.872001 119.047005 38.776001
-36.037003 155.718002 -75.227997
44.652000 153.070007 -1.007000
20.796999 147.703003 14.039000
6.829000 154.378998 -74.571999
-30.254002 77.612000 -16.430000
-18.326000 89.955002 68.999001
-59.570000 143.444000 -70.391998
30.595999 97.089996 0.659000
-61.245998 144.628998 1.592000
25.203999 144.211990 32.056999
-18.766998 95.271996 56.784000
-6.340000 102.053001 56.581001
-48.634998 154.981003 -64.903999
-52.528000 153.616989 -66.417000
-54.998001 151.925995 -65.105995
-59.174000 148.835999 -64.802994
-72.165001 143.425995 -16.271999
-62.160000 145.464005 -65.044998
-18.247999 89.386002 63.091999
32.460999 160.529999 7.536000
29.406000 91.862999 -17.511002
30.876999 150.128998 31.734001
6.650000 113.527000 39.565998
-6.578000 100.877998 62.550999
-12.638000 95.934006 63.050003
24.803999 151.057999 13.521000
34.905003 158.687988 20.827999
35.925999 97.914001 -4.347000
9.438000 115.759003 46.910000
14.216001 136.600006 19.650999
-71.374001 96.561996 -29.000000
-64.658997 143.162994 -63.688004
32.799004 153.613007 27.432001
30.980000 94.853996 -5.142000
-74.556000 139.264008 -66.346001
49.573997 125.746994 -34.480999
32.588001 160.880997 12.771000
8.205999 117.081001 44.612003
5.417000 115.488998 45.277000
21.743999 146.636002 5.821000
26.577999 147.660004 23.365000
-78.711006 137.029007 -65.389000
-84.744995 131.212997 -64.402000
-22.760000 89.153999 62.130001
-18.655001 84.783005 73.473000
-63.534996 146.526001 -3.941000
30.279999 156.462006 14.405000
-80.771996 140.224991 -60.795002
-83.139999 136.667999 -62.509998
-85.277000 137.433014 -58.875000
-17.156000 93.259003 62.221001
-68.939003 139.832001 -3.413000
21.837000 140.770996 32.359997
30.290001 149.535004 25.764999
-13.520000 102.084000 50.355000
-12.512000 95.864998 68.565002
-47.940002 158.143997 -59.365002
27.597000 152.330002 16.195000
-87.419006 132.627991 -61.303001
-42.688000 95.849998 8.148000
-6.591000 102.349998 51.374001
3.273000 109.646004 52.480999
0.214000 112.607002 45.230999
-5.332000 111.199997 48.870003
-6.938000 107.499001 50.912998
-54.090000 155.882996 -57.844002
-56.586998 152.192001 -59.410000
-60.033001 150.570007 -58.065002
-64.405998 147.852005 -57.934998
-57.365997 152.528000 -7.293000
-90.319000 131.637009 -57.969002
32.992001 154.850006 2.573000
-0.750000 108.278999 51.667000
-47.949001 84.353996 -17.458000
20.969000 147.294998 8.469001
22.997999 146.513992 21.659000
16.735001 113.026001 32.194000
10.285000 114.566994 36.990002
-4.294000 105.375000 66.454002
-69.159004 99.556999 -10.354000
-46.822998 160.669006 -56.563000
-88.538002 136.113007 -56.216003
-62.532001 151.425995 -53.428001
-92.000999 132.205994 -52.376999
40.603001 125.204994 -45.021999
41.555000 58.895000 68.588005
-48.007000 160.886002 -52.139999
-54.917000 157.772003 -52.384998
-59.379997 154.493011 -51.716999
-66.262001 149.432999 -52.153999
-69.250999 145.753998 -52.880001
-69.487999 147.207001 -15.587000
55.251999 156.630997 7.566000
-89.703003 136.057007 -52.080002
-63.759998 152.675995 -15.588000
-11.197000 99.669998 56.672001
20.896999 141.513000 25.860001
16.577999 122.474998 39.730000
28.200001 146.190994 26.689001
-1.492000 112.634003 48.790001
30.017000 151.403992 21.431002
-70.297005 147.461990 -18.518002
39.414001 76.806000 45.419998
-72.416000 143.747009 -46.647999
30.231998 90.116997 38.082996
-48.822998 162.020996 -45.873001
-54.825001 158.024994 -46.166000
-59.938999 154.688995 -45.792999
-63.665001 152.315002 -45.651001
-66.558006 150.455002 -46.495003
-70.217995 147.404007 -45.689999
-89.741997 135.938004 -45.639000
-92.565002 131.852997 -46.243000
-22.361000 93.935997 56.380997
27.091000 147.384003 35.487999
-52.882000 159.880997 -44.142998
-4.751000 111.225998 47.415001
-58.730999 154.145004 -11.760000
1.569000 110.798996 41.441002
-48.094002 163.547989 -40.090000
-53.720001 160.600006 -39.675999
-56.499001 158.099991 -40.417999
-59.798000 154.896011 -40.093002
-66.260002 150.852997 -39.956001
-70.312004 147.311996 -40.045002
-73.317001 143.298004 -40.153999
-91.383003 130.550995 -41.237999
30.741001 137.585007 -46.993000
58.521000 125.642998 3.499000
-68.590996 93.466995 -28.809000
52.812000 109.542000 8.554001
-3.989000 104.917000 64.240997
-15.900001 99.223999 54.701000
28.358000 151.630997 7.072000
-63.617996 152.597000 -38.350998
48.780998 113.597000 38.769001
42.598003 60.022999 64.987000
31.805000 131.852005 -49.243000
-6.772000 91.709999 -0.323000
47.924999 137.522003 -32.800999
-54.846001 101.781006 8.006000
-48.363998 164.335999 -34.786999
-54.418003 161.321991 -34.556000
-60.268997 156.636002 -34.507999
-67.107994 151.233994 -34.643002
-70.771004 147.395004 -34.686001
-73.461006 143.552002 -34.410999
-75.334000 140.325989 -33.841000
-77.237999 136.581009 -34.336998
11.811999 96.512001 7.755000
-79.106003 131.536011 -33.907997
16.736000 131.478989 26.997000
-30.158001 90.362000 0.846000
14.895000 118.294998 34.394001
-64.512001 153.944992 -33.185001
13.426001 113.600998 34.504997
-19.257000 88.137001 -5.307000
-80.463997 125.590996 -35.319000
27.713999 146.335007 29.825001
-60.707001 156.641006 -28.346001
-64.349998 153.742004 -28.167000
-67.732994 151.007996 -28.176001
-70.463997 147.626999 -28.250999
46.565998 109.881996 37.271999
44.015003 120.337006 -41.702000
-73.864998 143.319000 -28.017000
-75.177002 140.968994 -27.984001
-77.118004 137.100998 -28.166000
-78.869995 131.431000 -28.170000
48.852001 159.001999 5.578000
51.043999 107.264999 -15.977999
-13.158000 91.324005 57.286003
40.842999 129.757996 -43.867001
-60.175999 156.547989 -22.475000
-64.301003 153.731995 -22.460001
-67.920998 151.087006 -22.412001
-70.676994 147.356003 -22.591000
-73.356003 143.383987 -22.623001
-75.332001 139.798004 -22.939001
-36.076000 90.846001 1.585000
36.902000 90.158997 34.782997
41.515999 104.183998 27.162001
-6.732000 94.727005 3.582000
53.563000 114.820999 2.801000
-19.209999 84.736000 63.295998
-11.273001 102.099998 47.134998
-21.841999 94.412003 53.412003
-23.455000 85.941002 58.621002
49.446003 112.584000 32.688000
-53.805000 107.845001 -75.276001
-52.556000 101.540001 -74.382996
-51.875000 97.237999 -74.329002
-48.382000 95.223000 -75.944000
-55.549000 144.949005 -73.514000
-72.700005 119.264000 -72.430000
-73.183998 113.331001 -70.862000
-55.618000 106.252998 -72.655998
-51.419003 94.534004 -73.810005
-48.843998 89.431000 -71.473000
-54.230999 89.377998 -10.599000
-78.028999 119.990997 -69.811005
-76.991997 114.987000 -69.581001
-71.567001 109.237999 -69.603004
14.452001 119.575005 24.490000
-55.155998 101.072998 -70.288002
-54.102997 96.272995 -70.120995
-52.687000 91.209999 -69.549004
55.145000 150.303009 2.196000
-6.636000 88.867004 -4.260000
-81.578003 125.276001 -67.858002
-85.550003 119.681999 -64.552002
-81.473000 117.962997 -67.652000
-79.522995 113.560997 -67.304001
-61.928997 93.906998 -10.231999
-60.375000 107.371002 -71.134003
57.356998 117.190002 7.121000
29.292000 63.653999 56.850002
46.523998 142.401001 -3.904000
-86.172997 124.672005 -64.503998
-83.881996 113.362000 -64.090996
-1.171000 97.390007 6.607000
-60.676003 101.445999 -65.119995
-18.782999 76.982994 -16.509001
7.726000 99.899002 56.503002
38.710003 72.306999 45.395000
-79.109001 107.605003 -63.294998
-57.369999 101.019005 -67.391998
-54.513000 90.186996 -64.458000
1.424000 79.981995 -75.561996
36.557999 136.631989 -44.410000
41.278000 90.571999 39.174000
51.116001 111.459999 26.533001
-88.380005 127.114998 -62.299000
-59.884998 96.612999 -64.090996
-55.957001 94.948997 -66.250999
-66.483002 94.663002 -16.903000
-86.076996 113.689995 -41.218002
-86.282997 107.937004 -52.583000
23.716999 146.888000 -43.536999
31.725000 59.167999 46.450001
15.890000 111.916000 22.964998
-0.467000 90.043999 -4.767000
31.525002 65.085999 44.938999
5.617000 107.171997 39.728001
-90.864998 125.235008 -59.098999
-90.842003 119.750999 -58.463997
-87.040001 112.759003 -60.619999
-84.648994 108.533005 -58.704998
-80.551994 105.903999 -59.135998
-66.872002 104.334999 -63.141003
-36.237999 94.896004 7.580000
-18.645000 86.875999 -9.467000
28.574999 58.000000 56.705002
-89.344002 114.113998 -57.879002
-66.908997 102.463997 -58.866001
-62.210003 94.924004 -60.600002
-59.049000 91.661995 -62.162998
-24.793999 96.106003 7.689000
-18.597000 96.015999 6.958000
28.085001 105.903999 34.994999
-56.682003 106.154999 10.113000
6.724000 83.201996 -76.445000
-63.695000 99.987999 -61.029999
-65.435997 103.343002 0.617000
-12.329000 100.469002 9.700001
-12.930000 96.637001 6.408000
-24.326000 84.941002 -72.357002
19.084999 93.613998 1.573000
-53.663998 108.246002 12.996000
36.745998 108.928001 -75.962997
-30.025999 93.024002 4.127000
-64.453995 96.665001 -57.004002
-60.247997 90.377998 -57.868999
-18.682999 100.132004 9.956000
-60.518997 96.041000 -4.503000
-79.983002 113.001999 -40.917999
-30.427999 87.136002 -10.041000
42.158001 144.185013 -34.504997
-93.167000 125.890999 -53.417000
-92.968002 119.334000 -52.845001
-90.638000 113.251999 -52.664001
-19.138000 103.250000 12.430000
-54.612000 96.634003 1.586000
-68.173996 100.002998 -54.212002
-58.343002 86.129005 -28.201000
4.794000 94.539001 3.804000
48.519001 131.548996 -34.549999
-6.473000 81.322998 -71.492004
-71.133003 102.196999 -51.376999
-66.459000 95.987999 -52.085999
-55.241001 87.068001 -59.130001
-12.934000 77.549004 -17.125999
53.792999 154.783997 2.804000
-6.275000 161.643997 -75.556000
16.953001 91.256996 -4.415000
-60.090000 88.804001 -52.209999
-43.179001 82.671997 -16.124001
-12.877000 103.169998 11.674000
33.372997 93.243004 -19.798000
52.187000 109.625999 -16.507000
58.098000 131.166000 3.723000
57.475998 118.808998 20.983999
-73.914001 105.547005 -52.827999
-63.024998 92.889999 -52.669998
-60.127998 90.122002 -16.581001
34.281002 53.457001 62.151997
-47.628998 96.800003 7.326000
36.388000 143.354004 -40.748001
-94.139000 125.880005 -45.837002
-94.364006 123.875999 -47.665997
-93.649002 119.358002 -46.344997
-90.834999 113.433006 -46.828999
46.349998 104.116997 -6.859000
22.958000 106.496994 26.642000
-67.879997 95.516006 -46.890999
-64.143005 92.257996 -50.184998
-51.996998 103.460999 11.072000
12.233000 93.750999 1.697000
-79.047005 109.095001 -46.232998
24.997999 154.836990 -75.815994
41.368999 141.568008 -38.350002
36.508003 125.894997 -48.532001
19.460001 109.008995 25.802000
-74.450005 105.949997 -46.228001
-72.300003 100.948997 -46.100002
-84.916000 108.969002 -46.989002
45.301003 137.459000 -36.262001
51.598999 116.898003 33.551998
-64.737999 91.822998 -46.230000
-60.155998 88.633003 -46.100002
-65.303001 91.445999 -22.973000
43.816998 106.008003 33.278000
-46.687000 92.362999 -0.274000
-30.535999 102.086998 14.006000
0.858000 159.263000 -72.135002
-53.468998 84.596001 -23.094000
-91.973999 125.415001 -40.181999
-91.570000 119.278999 -40.735001
-89.528000 114.960999 -41.280998
-70.477005 97.452995 -44.197998
29.132000 49.045002 62.254002
36.843002 65.169998 44.223000
58.196999 120.021996 19.782000
36.591999 77.894005 37.512001
38.697998 137.492004 -42.699001
41.105000 84.287003 39.952999
-76.537994 107.952995 -39.370998
-75.595001 106.056000 -41.465000
-67.969002 94.678001 -40.778999
0.808000 103.630997 12.195001
-73.581001 101.205994 -39.785000
-70.500000 97.416000 -39.976002
-64.514999 91.427002 -40.500000
-61.729000 88.472000 -40.172001
-24.839001 86.926994 -9.018001
-0.606000 80.842003 -70.703003
49.630001 150.450012 -0.247000
-47.701000 102.652000 12.520000
42.615002 149.625000 -2.080000
39.847000 78.578003 44.222000
-49.460999 82.469002 -21.794001
56.738998 150.153992 20.643999
-79.012001 113.418999 -33.881001
18.243000 125.623001 -55.320000
4.226000 99.744995 10.285000
-80.061005 119.822998 -34.428997
-77.159004 107.761002 -33.792999
-73.932999 102.225998 -34.038998
-70.375000 97.833000 -34.432999
-68.363998 95.123001 -34.051998
-65.352997 91.297997 -34.327000
-61.949997 88.194000 -34.910000
31.257000 145.539001 -41.908001
-30.073000 83.789001 -12.103000
4.932000 88.950996 -10.605000
37.114002 71.985001 39.180000
-8.642000 91.880997 68.498001
-36.820000 78.881004 -17.015001
57.561001 133.381989 31.971998
51.680000 111.107994 -8.602000
-36.421001 102.069000 13.990000
31.516998 77.723000 56.618999
-79.403999 125.388992 -27.993000
-79.622002 119.396004 -27.979000
-78.775002 113.415001 -28.056999
-66.023003 91.656998 -28.486000
37.346001 101.706001 31.293999
6.240000 89.681999 -65.477997
40.220001 97.612000 35.070000
32.756001 57.814999 67.183006
36.371998 58.988998 68.510002
38.539001 63.257000 67.130997
-20.247000 161.697998 -13.292000
42.624001 63.570999 66.933998
54.098000 120.091995 38.734001
51.320999 117.241005 38.819000
51.954998 110.163002 -12.676000
36.733002 71.403999 62.228001
33.475998 70.298004 60.642998
58.147999 121.551994 3.927000
-64.547005 109.296005 5.628000
56.960999 124.973000 33.357002
-86.804001 118.775002 -38.299999
-68.240997 113.617004 2.919000
-65.534004 114.454002 6.411000
22.426001 112.980003 49.412998
-61.841999 113.378006 9.332999
35.913002 66.390999 40.809002
-84.343002 121.930000 -37.376999
-81.958000 119.283997 -38.081001
-58.576000 113.265999 11.800000
34.988003 78.764000 59.440002
37.599003 78.128006 60.556999
43.133999 101.969002 45.040001
-85.950005 125.605003 -37.249001
-68.949997 119.805000 2.737000
-54.260998 113.996994 14.910001
14.243000 130.160004 23.631001
41.179001 78.065002 60.511997
-65.632004 120.081001 6.899000
-49.681000 112.043999 16.871000
58.037998 127.439011 32.088001
-62.507004 117.585999 9.757000
-47.020000 114.082001 18.423000
52.733997 136.436005 -10.259000
31.876001 83.732002 55.227997
36.419998 83.851997 58.173000
44.841000 78.221001 56.756001
-54.985001 88.057999 -16.194000
-59.489998 119.455002 12.365001
-42.632000 113.199005 19.363998
37.563999 81.192001 59.799999
42.591003 83.453003 57.221001
-85.951996 131.836990 -39.051998
-54.146000 119.938004 15.849000
41.173000 98.070999 -10.914000
53.004002 136.421997 -21.630001
-68.922997 125.801994 2.718000
-65.502998 125.342995 6.981000
-36.377003 113.640999 19.997002
-7.790000 162.666000 -28.320999
33.197002 88.554001 54.699001
46.989002 115.603996 42.375000
31.132999 125.906006 -75.714996
29.365000 130.836990 -75.469002
30.864000 137.177002 -75.778999
30.813000 137.483002 -70.967003
31.813000 143.153000 -75.497002
30.890999 149.507996 -75.491005
53.472000 136.804001 -16.308001
-7.053000 86.965004 -10.314000
37.009998 119.603996 -75.888000
36.208000 119.903000 -71.043999
34.377003 124.078995 -74.988998
44.413998 146.179001 -28.743999
47.502998 143.216995 -27.922998
37.803001 113.473000 -71.742996
28.181000 132.651001 -72.755005
31.948999 143.057999 -70.012001
27.866001 154.595001 -70.609001
41.459999 148.832001 -28.025000
50.735001 159.373001 23.052000
51.481998 139.764999 -16.190001
49.564999 151.123001 33.994999
-6.881000 97.438995 6.902000
34.538998 123.107002 -72.394997
30.497000 125.826996 -70.601997
25.424000 130.931000 -69.936996
53.532997 154.774994 24.872000
5.398000 153.281006 -70.868996
-8.105000 160.876999 -33.372997
-42.077999 91.491997 1.161000
29.072001 149.579010 -66.476997
55.063999 156.884003 14.541000
-48.507000 88.680000 -9.646999
47.624001 144.179001 -23.084999
30.231001 142.951996 -66.794998
48.946999 106.121002 15.133000
4.026000 153.667999 -67.844002
-2.101000 160.834991 -67.431000
50.750999 139.299011 -23.215000
35.581001 113.697998 -67.994995
35.603001 118.107994 -68.003998
30.772001 119.668999 -65.798996
29.572001 124.016998 -67.966995
24.649000 125.076996 -66.313995
54.047001 156.570999 19.995001
50.342003 140.056000 -10.783000
50.290001 137.810013 -28.432001
-12.511000 161.929993 -17.240002
53.468998 149.067993 31.934000
25.469000 120.617004 -63.952000
19.485001 126.518997 -64.268997
54.736000 131.635986 -22.507999
15.978999 111.449005 55.183998
25.181999 144.422989 -63.318996
22.710999 119.069000 -58.968998
53.093998 142.844009 37.355999
-2.579000 153.681992 -61.386997
43.480999 160.835999 4.277000
-12.522000 158.136002 -14.759001
17.566000 125.797005 -59.753002
-41.853001 78.663002 -21.750999
-9.373000 152.414001 -56.278000
17.610001 131.037994 -58.295002
19.192001 137.738007 -58.889999
16.973000 143.406006 -51.598000
14.453000 147.029999 -51.647999
-9.516000 152.848007 -52.062000
42.502003 103.747002 8.511001
-15.111000 161.335007 -50.260998
-3.585000 87.145004 -13.464000
-9.235999 153.011002 -47.840000
-11.029000 156.695999 -46.046997
-14.139000 161.110001 -46.569000
-7.418000 91.571999 62.208000
-6.896000 96.285004 50.856998
22.427000 109.507004 45.003002
26.474001 104.271004 25.749001
30.108999 148.662994 -39.051998
-13.387000 72.829002 -23.731001
22.289000 92.092995 -4.972000
19.640001 109.708000 33.197002
-7.760000 154.611008 -40.252998
-9.871000 157.737000 -41.340000
19.146999 105.501999 16.529999
45.356998 105.258003 21.141001
24.591999 100.442001 9.371000
6.200000 92.091003 -0.276000
-12.401000 89.224998 62.396000
21.330000 121.431999 -54.388000
10.124000 85.964996 -76.140999
11.554000 89.969002 -76.025002
10.929000 88.968002 -71.677002
12.856000 95.406006 -76.213005
13.190001 96.570999 -71.070999
-24.380001 86.074005 -76.334000
-36.545998 87.924004 -10.414000
35.652000 108.900002 -71.494995
58.600002 136.951996 20.323999
9.985000 85.410995 -73.468002
-61.526001 88.624001 -28.888000
34.272999 54.703999 58.729000
58.109001 141.953003 18.957001
32.880001 106.285995 -69.600998
39.695999 73.829002 41.218002
5.585000 83.118996 -71.227997
30.308001 108.071999 -66.933998
27.114000 135.414001 -68.161003
52.331001 110.002998 20.046000
18.618000 99.976006 -70.360001
23.422998 133.158005 -67.266998
9.809999 91.399994 -67.782997
10.450000 96.294998 -66.584999
12.321000 100.148003 -64.231003
31.165001 113.848000 -65.027000
19.169001 131.429001 -64.232994
23.829000 137.604004 -64.767998
28.466999 139.397995 -66.352005
-0.282000 83.988998 -65.399002
4.338000 85.506996 -66.362000
-1.337000 94.487000 3.708000
24.374001 107.450005 -63.649998
58.065998 131.230988 37.276997
6.578000 95.613007 -63.562996
-37.978001 98.237000 11.152000
-48.556999 94.167000 1.991000
19.150000 102.962997 -64.388000
26.498999 113.388000 -63.206001
39.216999 88.854996 36.409000
40.663002 66.685997 57.969002
24.064999 113.911003 -59.174000
20.262999 137.210999 -62.412003
-18.712999 93.491005 3.736000
0.090000 89.471001 -62.674999
-52.889999 86.282997 -18.284000
-50.368999 86.889000 -15.511000
-53.534000 91.897003 -6.561000
-1.465000 95.466003 -59.050999
3.416000 97.610001 -61.890999
5.698000 99.770004 -58.826000
-24.507000 90.444000 0.859000
18.137001 103.202995 -59.201000
22.274000 108.030998 -57.777000
-4.087000 89.318001 -58.077000
-1.984000 91.362999 -61.082001
-65.667000 97.869003 -6.627000
-7.326000 84.250000 -58.137001
24.874001 97.712997 6.016000
-18.578001 91.569000 0.882000
18.705999 96.972000 7.472000
18.320000 101.747002 -52.437000
22.769001 107.611000 -52.471001
25.370001 113.484001 -52.105000
25.126999 119.292999 -52.875000
-52.455002 97.548004 5.423000
-12.240000 91.628998 0.945000
-9.511000 80.660004 -54.602001
-6.169000 83.238998 -52.168999
-3.852000 88.962006 -52.437000
-1.336000 95.955002 -51.778999
-40.823002 98.061005 11.072000
-8.234000 79.853996 -51.194000
-2.712000 91.298996 -50.586998
31.582001 107.786003 -47.500000
36.219002 108.736000 -44.966000
36.563999 114.458000 -47.216000
46.514999 129.867996 -38.236000
34.255001 54.723000 50.204998
-11.886000 75.673996 -47.061001
-7.596000 78.507996 -45.891998
-4.447000 83.217003 -47.072998
-3.006000 88.291000 -47.779999
-1.525000 90.522995 -45.535000
-0.155000 94.714005 -47.083000
-12.874000 84.316002 -76.605995
40.908001 119.047997 -44.888000
-49.532001 100.333000 10.028000
43.591999 113.883003 -40.663002
41.393002 115.230003 -43.786999
-2.797000 85.264000 -44.965000
37.714001 106.813995 -42.008999
42.833000 107.758003 -39.084999
46.790997 120.630005 -39.324001
57.911999 126.863007 37.425999
-6.055000 77.184998 -40.711998
-3.402000 81.749001 -41.510002
-1.801000 84.066002 -39.595001
-0.366000 89.443001 -40.739998
1.935000 93.006996 -40.127003
25.271000 101.713997 -71.612999
36.341000 102.629997 -40.330997
47.054001 115.442001 -38.070999
-48.591000 108.053001 15.386999
41.143002 103.146004 -37.834000
48.962002 113.417999 -34.439999
57.854000 124.932999 22.980999
-37.139000 82.624001 -13.835000
42.709999 102.122002 -34.091000
45.046001 105.480995 -35.834000
47.249001 107.808998 -33.527000
50.033001 119.987999 -34.195999
-43.267002 92.855995 3.303000
-35.535000 84.592995 -12.561000
-4.921000 75.905006 -34.959000
-0.342000 83.651001 -34.591999
1.228000 89.213997 -34.926003
-56.538998 86.692993 -21.436001
-2.216000 78.675003 -33.581001
36.612999 96.570999 -34.354000
52.685001 119.797997 -29.246000
52.889999 125.710991 -29.197001
-12.625000 83.660995 -14.399000
-12.321000 93.588997 3.674000
41.187000 96.784004 -27.864000
43.866001 100.660004 -29.501001
46.584000 103.495003 -28.556000
49.203999 107.470993 -28.629999
51.038002 113.213005 -28.950001
52.615002 131.042999 -27.458000
51.387001 132.701996 -29.042000
-87.984001 111.483002 -44.548000
-0.269000 83.667999 -27.879999
2.374000 87.945000 -27.812000
52.764999 113.702995 -26.466002
-4.722000 75.763000 -27.990000
-2.269000 79.153999 -28.478001
51.973999 115.883003 31.147999
45.088001 99.956001 -22.153999
47.276001 102.450996 -21.949001
50.967999 107.217995 -22.843000
52.142002 109.618004 -22.510000
54.187000 114.408997 -22.587999
55.105000 119.689003 -23.023001
55.149998 125.679001 -22.995998
30.955999 102.966003 -75.859001
17.864000 97.815994 -76.489998
-6.745000 83.443001 -64.861000
-18.792000 84.284996 -12.563001
-12.082001 86.758003 -9.947001
-54.361000 83.981995 -28.122000
-41.021000 79.792999 -17.862999
-18.981001 72.686996 -22.789999
-24.831999 93.403999 3.793000
-59.911003 98.098999 -0.782000
-18.844000 83.917999 -72.199005
-0.424000 83.417999 -77.013000
-6.642000 83.527000 -76.669998
-24.937000 83.664001 -12.131000
-22.334000 98.704002 10.107000
-70.167000 97.727997 -18.118000
23.733999 103.541000 -67.142006
-14.096001 85.924995 -12.792000
-13.049000 82.408005 -72.169998
25.339001 101.998001 -77.003998
18.363001 89.390999 -10.061999
-40.454998 86.112000 -12.875000
-18.540001 108.195999 15.351000
-64.186996 91.865005 -18.271000
-54.534000 84.105003 -52.903999
-16.504999 82.845001 -13.669000
-79.429001 105.631004 -52.530003
-23.986000 72.610001 -28.490000
30.159000 103.538994 -71.505005
-42.070999 87.412003 -72.080002
-58.722000 85.875999 -33.760998
-10.464000 74.518005 -21.201000
18.950001 100.769997 -76.598007
-54.598000 83.858994 -46.324001
18.157999 107.908005 20.923000
-18.462000 85.290001 -76.164001
-17.312000 112.410004 16.571001
13.493999 109.076996 17.797998
-23.815001 106.928993 16.441000
-25.972000 109.408997 17.844999
-30.384001 108.967995 18.192001
-36.267002 108.769997 18.305000
-42.463001 109.067001 17.957001
22.732000 105.002998 20.871000
12.326000 105.866997 16.450001
-30.382000 106.156998 16.961000
-36.466999 106.297005 16.962999
-43.582001 106.051994 16.094999
21.896999 104.704002 16.118999
-41.424000 90.026001 -75.870995
-36.146999 90.242996 -76.498001
-30.471001 89.094994 -76.474998
-46.896000 91.021004 -75.395004
-37.839001 86.639000 -72.411003
-34.837002 86.102005 -72.370003
-30.337000 85.529999 -72.329002
24.073000 91.195999 -10.056000
15.145000 105.244003 42.443001
31.228001 107.757004 -77.234001
30.650999 93.322998 -10.291000
37.012001 96.112999 -10.578000
-0.791000 101.218002 45.089001
-67.038002 113.450996 -73.354996
-65.522995 108.765999 -70.929001
-49.278999 86.995995 -65.756996
-42.323997 86.451004 -68.071999
-36.554001 84.128998 -65.445000
-30.446001 83.494995 -66.030998
-24.306000 82.650002 -65.865005
-18.893999 82.939995 -66.389999
-12.507000 82.525002 -64.625999
-67.481003 105.316002 -65.874001
-2.164000 98.487000 47.540001
-73.579994 107.170998 -65.819000
-47.754002 85.566002 -63.368999
-42.807999 84.549004 -64.064003
43.223999 131.514999 -41.174999
-42.153999 81.556000 -58.924999
-36.423000 80.861000 -60.024002
-31.782999 80.303001 -61.772999
-30.215000 79.308998 -58.456997
-24.275999 78.848999 -59.794998
-18.827002 78.813004 -59.341999
-17.272999 80.340996 -61.863003
-12.845000 81.072998 -59.916000
-73.954002 104.171997 -58.830997
-48.360001 83.330994 -58.639999
-75.313004 104.672997 -61.630001
-53.390999 84.595001 -57.725998
-13.579000 79.489998 -57.293999
0.198000 100.093002 -57.998001
12.682000 100.551003 -57.801003
-13.028999 96.059006 51.158001
-78.420998 104.568001 -57.626999
-40.765999 80.213005 -56.063999
-36.264999 79.970001 -56.063999
-30.407000 77.569000 -53.017002
-24.282000 76.600998 -53.049004
-18.259001 75.728996 -52.517998
-13.158000 77.348999 -52.613998
-47.513000 81.734001 -52.751999
-43.758999 80.770004 -51.862000
-40.757000 80.104996 -51.827000
-36.166000 78.524002 -51.702000
0.290000 99.134995 -52.743000
5.642000 99.214005 -52.469997
12.618000 99.200005 -52.805000
-23.815001 74.861000 -46.500000
10.728000 98.329002 -50.733997
-48.680000 81.150002 -46.137001
-41.822002 79.020996 -45.795998
-36.688000 77.473000 -46.363998
-29.816000 75.809998 -46.131001
-18.958000 73.556999 -45.710999
3.233000 98.438004 -50.037998
19.211000 100.587006 -47.077000
4.758000 96.510002 -45.825001
11.820000 96.735001 -45.931000
26.497002 106.423996 -48.420002
44.434998 104.948997 6.746000
-14.684000 73.238998 -44.302002
24.333000 102.926003 -46.229000
29.149000 103.306000 -45.181999
-58.538002 85.856995 -39.623001
-54.885998 83.375999 -40.444000
-50.104000 80.996994 -40.557999
-46.704002 79.510002 -40.453003
-42.104000 78.289001 -40.366001
-35.725002 76.405006 -39.848000
-30.363998 75.361000 -40.336002
-25.691999 74.512001 -41.542000
-23.230000 73.338997 -39.204998
-18.684000 72.423004 -40.274002
-13.031000 72.558998 -40.065002
-9.332001 74.464996 -41.375000
27.089001 99.890999 -43.356998
5.300000 93.870995 -40.082001
11.706000 94.267006 -40.210999
18.914000 96.119003 -40.931000
25.723000 95.997002 -40.428001
31.822001 100.777000 -41.868000
-8.668000 73.885002 -38.738998
30.358999 96.863998 -39.446999
-54.574001 83.839996 -33.790001
-49.642002 81.339005 -34.189999
-46.753998 80.045998 -34.696999
-42.505997 77.679001 -34.679001
-35.880001 75.556000 -34.631001
-31.666000 74.648003 -34.487999
-28.664000 73.743004 -34.431000
-23.799000 72.851997 -34.123001
-18.981001 72.139000 -34.305000
-11.976000 72.048996 -34.360001
-8.452000 73.264999 -34.469002
4.316000 91.805000 -34.100998
6.311000 92.690994 -36.055000
10.313000 91.925003 -34.125999
13.209001 93.349998 -36.233002
18.433001 93.209000 -36.136002
25.558001 93.056999 -36.180000
30.979000 93.964005 -35.089001
38.701000 100.144997 -36.690998
28.094000 154.597992 -75.304001
19.068001 91.763000 -33.730000
25.319000 91.971001 -33.973000
-46.530998 79.925003 -29.722000
-42.351997 78.169006 -28.651999
-35.721001 75.788994 -28.687000
-31.651001 74.270004 -30.236000
-29.632000 73.389000 -28.298000
-19.130001 71.695999 -28.679001
-12.658000 71.983002 -28.331001
-8.620001 73.014000 -28.820000
40.153000 98.514999 -33.014000
-48.854000 81.195999 -27.588001
4.970000 89.757004 -28.924999
11.689000 90.282997 -29.164000
18.385000 89.582001 -28.869999
24.940001 90.419998 -29.445000
30.520000 91.822998 -27.948999
32.841999 92.933998 -30.652000
36.130001 93.658997 -27.658001
-28.611000 73.921997 -23.875999
-8.608001 73.953003 -23.965000
-46.633999 80.169998 -23.556999
2.655000 86.925995 -24.009001
-24.651001 90.223999 -76.660995
-12.716000 89.844002 -76.479004
-18.638000 89.955002 -76.606995
-6.852000 89.617996 -76.420998
-36.256001 94.903000 -75.612000
-42.289001 95.968002 -76.246002
5.656000 90.455002 -76.994003
-0.763000 90.529999 -76.183998
-31.184000 94.094002 -75.562996
-18.518999 92.621002 -74.986000
-21.948000 93.013000 -75.350998
-24.212999 95.743996 -72.699005
-30.604000 96.653000 -72.487999
-36.288002 97.245003 -72.985001
-49.340000 101.894997 -76.007004
-2.745000 92.257004 -74.024002
-6.907000 91.899002 -73.970001
-11.594999 92.286995 -73.744995
-13.125999 95.459000 -72.439995
-18.169001 95.073997 -72.484001
-40.813000 98.217003 -74.100006
-43.353001 101.471001 -75.519005
-40.454998 101.926994 -72.878006
6.267000 96.139000 -76.433006
-0.477000 96.038994 -72.501999
-7.043000 95.352997 -72.139000
-36.637001 101.178001 -71.774994
3.010000 95.132996 -74.922005
-30.414000 101.851997 -71.611000
-41.746002 107.497002 -75.901001
-47.933002 107.874001 -76.348000
3.146000 97.064003 -73.688995
-18.806000 101.842003 -71.911995
-24.562000 101.815002 -71.778000
11.674000 102.229996 -77.044998
6.884000 102.098999 -75.637001
-12.806000 101.935997 -72.117004
-36.107998 107.519997 -72.292999
-48.473000 113.606995 -75.664993
-53.577000 114.200005 -75.935997
-60.548000 114.385002 -75.365997
-61.507999 111.543999 -74.164001
4.178000 101.292999 -73.147995
-0.154000 102.159996 -72.261993
-6.975000 101.855003 -72.267006
-30.435999 107.793007 -71.759003
-37.943001 109.681000 -75.109001
-42.240002 114.284996 -75.673996
-64.847000 115.295998 -74.690994
-24.546999 107.723000 -71.929001
-36.146999 114.114998 -75.808006
7.770000 107.441002 -76.570000
-12.881000 107.878998 -72.291000
-18.766998 107.830002 -72.125999
-34.464001 111.668999 -73.125000
-55.004002 119.335999 -75.225998
