-35.2333 67.2349 0.1106 0.0006 0.0000 -1.0000
0.3819 28.1338 0.1327 0.0006 0.0000 -1.0000
-39.8532 0.4422 0.1077 0.0006 0.0000 -1.0000
-8.1704 42.0962 24.0424 0.4712 0.8165 0.3336
-24.0496 14.4136 47.5978 -0.9430 -0.0000 0.3327
-8.1888 18.5586 81.6727 0.4712 0.8165 0.3336
-6.6257 -20.8058 73.9655 0.4712 -0.8165 0.3336
13.1491 30.5592 22.1665 0.4712 0.8165 0.3336
45.6956 7.7844 31.9371 0.4712 0.8165 0.3336
57.0783 -6.1629 19.8293 0.4712 -0.8165 0.3336
18.1021 -27.7519 22.0417 0.4712 -0.8165 0.3336
0.0140 38.4850 21.3207 0.4712 0.8165 0.3336
-19.5852 13.5313 60.2499 -0.9430 -0.0000 0.3327
12.5411 -3.2885 89.7660 0.4712 -0.8165 0.3336
-18.3229 -54.5024 0.1211 0.0006 0.0000 -1.0000
27.4168 -2.9910 69.4844 0.4712 -0.8165 0.3336
-26.3269 -54.4966 19.3376 0.4712 -0.8165 0.3336
-17.3198 17.4011 66.6703 -0.9430 -0.0000 0.3327
-30.0102 -15.8832 30.7053 -0.9430 -0.0000 0.3327
46.1574 0.8429 48.2732 0.4712 0.8165 0.3336
-35.3791 -8.3835 15.4895 -0.9430 -0.0000 0.3327
-16.7663 17.4105 68.2389 -0.9430 -0.0000 0.3327
-10.6141 -30.7272 55.3174 0.4712 -0.8165 0.3336
39.8392 -5.0248 46.9622 0.4712 -0.8165 0.3336
8.3932 41.8023 1.3679 0.4712 0.8165 0.3336
30.4804 28.2275 3.3951 0.4712 0.8165 0.3336
-30.4592 -2.3830 29.4329 -0.9430 -0.0000 0.3327
49.8408 16.3275 5.1750 0.4712 0.8165 0.3336
-22.0070 42.7557 41.9702 0.4712 0.8165 0.3336
-28.9587 -12.3076 33.6852 -0.9430 -0.0000 0.3327
55.9504 -12.9009 4.9320 0.4712 -0.8165 0.3336
-18.6046 54.6200 8.1290 0.4712 0.8165 0.3336
-29.1631 -4.2852 33.1061 -0.9430 -0.0000 0.3327
66.7565 -2.2847 15.6517 0.4712 -0.8165 0.3336
5.9453 -17.6452 0.1362 0.0006 0.0000 -1.0000
0.7376 9.4452 91.3692 0.4712 0.8165 0.3336
10.3697 40.3339 2.1701 0.4712 0.8165 0.3336
-25.5627 55.6165 15.5176 0.4712 0.8165 0.3336
-37.8901 25.4267 8.3735 -0.9430 -0.0000 0.3327
62.3077 6.6674 11.2089 0.4712 0.8165 0.3336
-40.1000 27.1259 2.1104 -0.9430 -0.0000 0.3327
-14.2456 23.2516 0.1236 0.0006 0.0000 -1.0000
-23.6928 55.6040 12.9071 0.4712 0.8165 0.3336
12.5876 12.4058 67.3871 0.4712 0.8165 0.3336
35.8017 4.6188 53.6581 0.4712 0.8165 0.3336
50.7787 -13.2086 0.1640 0.0006 0.0000 -1.0000
-32.8804 -12.5604 22.5710 -0.9430 -0.0000 0.3327
22.5905 8.1654 63.6372 0.4712 0.8165 0.3336
-22.6684 -50.1488 24.8111 0.4712 -0.8165 0.3336
-6.6704 18.4563 79.7787 0.4712 0.8165 0.3336
31.6789 1.2683 67.6809 0.4712 0.8165 0.3336
18.0016 -25.4705 27.7669 0.4712 -0.8165 0.3336
23.6222 27.1461 15.7279 0.4712 0.8165 0.3336
-28.3580 -15.0189 0.1149 0.0006 0.0000 -1.0000
11.2662 -32.7047 19.5753 0.4712 -0.8165 0.3336
6.9542 30.0713 32.1100 0.4712 0.8165 0.3336
71.4172 4.6785 3.2106 0.4712 0.8165 0.3336
24.8629 -8.3472 59.9829 0.4712 -0.8165 0.3336
-22.2525 -37.0488 52.6908 -0.9430 -0.0000 0.3327
-13.5844 -26.1805 70.6400 0.4712 -0.8165 0.3336
-18.9527 -53.7773 10.6831 0.4712 -0.8165 0.3336
-27.0549 22.7875 39.0807 -0.9430 -0.0000 0.3327
12.4831 -39.9205 0.1971 0.4712 -0.8165 0.3336
12.2286 -35.9347 10.3110 0.4712 -0.8165 0.3336
-28.3973 12.0205 35.2762 -0.9430 -0.0000 0.3327
-12.0774 33.7136 0.1250 0.0006 0.0000 -1.0000
39.6482 -16.9827 17.9670 0.4712 -0.8165 0.3336
-5.4846 6.7906 100.2116 -0.9430 -0.0000 0.3327
-17.3586 -36.7045 0.1217 0.0006 0.0000 -1.0000
-39.2287 -51.2617 4.5797 -0.9430 -0.0000 0.3327
-25.8205 -50.7525 0.1164 0.0006 0.0000 -1.0000
51.1570 15.8330 0.1643 0.0006 0.0000 -1.0000
-5.9504 -6.1687 98.8915 -0.9430 -0.0000 0.3327
37.6964 -21.6040 0.1559 0.0006 0.0000 -1.0000
-15.5833 54.3616 4.4942 0.4712 0.8165 0.3336
-18.6157 33.5221 0.1209 0.0006 0.0000 -1.0000
60.2174 9.1197 8.1595 0.4712 0.8165 0.3336
-27.8549 -45.0840 36.8134 -0.9430 -0.0000 0.3327
-9.3467 -3.7536 89.2661 -0.9430 -0.0000 0.3327
-6.7121 -5.8916 96.7327 -0.9430 -0.0000 0.3327
-6.1872 -14.1067 89.7411 0.4712 -0.8165 0.3336
3.7355 -40.8099 10.3751 0.4712 -0.8165 0.3336
-30.2642 -45.2307 29.9853 -0.9430 -0.0000 0.3327
12.3692 -5.0043 0.1402 0.0006 0.0000 -1.0000
-34.1637 -59.5243 18.1015 0.4712 -0.8165 0.3336
-21.6411 -4.1970 54.4235 -0.9430 -0.0000 0.3327
38.2275 19.3351 0.1562 0.0006 0.0000 -1.0000
17.7712 19.8814 41.7708 0.4712 0.8165 0.3336
18.2833 -27.2096 23.1130 0.4712 -0.8165 0.3336
24.8701 -16.0554 41.1083 0.4712 -0.8165 0.3336
-27.0502 -16.6224 39.0940 -0.9430 -0.0000 0.3327
24.6985 -22.3397 25.9708 0.4712 -0.8165 0.3336
-39.4306 27.2002 4.0076 -0.9430 -0.0000 0.3327
-11.8731 -50.4153 8.9121 0.4712 -0.8165 0.3336
47.8374 5.8311 33.6926 0.4712 0.8165 0.3336
19.6999 -12.9947 55.9010 0.4712 -0.8165 0.3336
-10.3646 -33.4766 48.2364 0.4712 -0.8165 0.3336
-29.5424 54.9818 22.6916 0.4712 0.8165 0.3336
9.3279 -22.3900 47.5564 0.4712 -0.8165 0.3336
-27.2186 59.8819 7.4174 0.4712 0.8165 0.3336
-38.8893 -18.6139 5.5417 -0.9430 -0.0000 0.3327
-11.1109 -48.6736 12.0981 0.4712 -0.8165 0.3336
-31.9682 49.8533 0.1126 0.0006 0.0000 -1.0000
-29.7190 59.0802 12.9110 0.4712 0.8165 0.3336
15.3641 3.7226 84.7166 0.4712 0.8165 0.3336
-33.5076 -49.6055 20.7936 -0.9430 -0.0000 0.3327
-23.2971 -1.5059 49.7303 -0.9430 -0.0000 0.3327
41.5589 19.8765 8.1863 0.4712 0.8165 0.3336
-34.0443 -33.6521 0.1113 0.0006 0.0000 -1.0000
0.0814 -30.3736 41.0769 0.4712 -0.8165 0.3336
2.3503 -43.0092 0.1339 0.0006 0.0000 -1.0000
-1.4609 23.2079 0.1316 0.0006 0.0000 -1.0000
-10.8008 -30.7503 55.5246 0.4712 -0.8165 0.3336
-9.5223 6.3427 88.7686 -0.9430 -0.0000 0.3327
-32.2306 -55.3938 24.4126 -0.9430 -0.0000 0.3327
29.4076 -24.2676 14.6016 0.4712 -0.8165 0.3336
-23.8228 -52.1162 21.6267 0.4712 -0.8165 0.3336
-21.1196 -30.3038 55.9014 -0.9430 -0.0000 0.3327
-19.6599 -31.9072 0.1203 0.0006 0.0000 -1.0000
3.9310 -27.4899 42.6974 0.4712 -0.8165 0.3336
13.1941 -17.1650 0.1407 0.0006 0.0000 -1.0000
43.4580 17.9196 10.2931 0.4712 0.8165 0.3336
6.8751 8.9959 83.8004 0.4712 0.8165 0.3336
19.8429 -22.5853 32.2275 0.4712 -0.8165 0.3336
-34.7643 48.1546 17.2319 -0.9430 -0.0000 0.3327
-35.4192 30.2576 15.3760 -0.9430 -0.0000 0.3327
67.7874 -4.1594 9.6075 0.4712 -0.8165 0.3336
-38.6679 7.2502 6.1692 -0.9430 -0.0000 0.3327
-39.9161 47.5771 2.6315 -0.9430 -0.0000 0.3327
39.0526 -0.6740 58.7209 0.4712 -0.8165 0.3336
-20.2419 -46.1409 31.1928 0.4712 -0.8165 0.3336
-34.7145 43.3801 17.3732 -0.9430 -0.0000 0.3327
28.9377 0.8845 72.4918 0.4712 0.8165 0.3336
-37.3267 -11.1565 9.9699 -0.9430 -0.0000 0.3327
4.9294 -19.6336 60.5145 0.4712 -0.8165 0.3336
-17.8709 -56.4874 2.5226 0.4712 -0.8165 0.3336
-23.2122 -8.6660 0.1181 0.0006 0.0000 -1.0000
49.1570 11.1506 0.1630 0.0006 0.0000 -1.0000
16.6937 -21.7524 38.7138 0.4712 -0.8165 0.3336
2.6080 -43.7186 4.8489 0.4712 -0.8165 0.3336
10.4587 -38.4396 6.6803 0.4712 -0.8165 0.3336
-22.7361 -27.1680 51.3204 -0.9430 -0.0000 0.3327
-36.9439 -22.1917 11.0550 -0.9430 -0.0000 0.3327
2.0383 32.9696 0.1337 0.0006 0.0000 -1.0000
-21.6769 -45.3213 35.2254 0.4712 -0.8165 0.3336
-7.9976 -44.7974 0.1275 0.0006 0.0000 -1.0000
62.5699 10.4586 0.1714 0.0006 0.0000 -1.0000
-6.5221 12.0318 0.1284 0.0006 0.0000 -1.0000
11.8816 35.9260 10.8224 0.4712 0.8165 0.3336
19.3358 1.6548 0.1445 0.0006 0.0000 -1.0000
-34.7001 -64.5538 6.5502 0.4712 -0.8165 0.3336
0.8259 34.2498 30.5392 0.4712 0.8165 0.3336
34.3390 5.2407 54.2020 0.4712 0.8165 0.3336
65.4255 -6.2735 7.7693 0.4712 -0.8165 0.3336
-37.5706 21.4259 9.2787 -0.9430 -0.0000 0.3327
-38.3094 -11.9430 7.1851 -0.9430 -0.0000 0.3327
-24.4821 -59.1390 5.3706 0.4712 -0.8165 0.3336
18.7576 -16.3086 0.1441 0.0006 0.0000 -1.0000
-29.1449 -45.1158 33.1576 -0.9430 -0.0000 0.3327
34.0605 -19.0566 20.7833 0.4712 -0.8165 0.3336
-30.5698 -7.7409 29.1193 -0.9430 -0.0000 0.3327
-39.1112 56.9552 0.1082 0.0006 0.0000 -1.0000
-1.1400 44.0225 0.1318 0.0006 0.0000 -1.0000
30.0409 8.6606 0.1512 0.0006 0.0000 -1.0000
3.3144 17.3027 68.4998 0.4712 0.8165 0.3336
-33.9261 42.9217 19.6074 -0.9430 -0.0000 0.3327
-9.1576 -6.4232 89.8021 -0.9430 -0.0000 0.3327
-40.1635 21.1503 1.9306 -0.9430 -0.0000 0.3327
34.6670 15.0136 0.1540 0.0006 0.0000 -1.0000
14.1911 2.8852 88.4228 0.4712 0.8165 0.3336
-40.1623 -50.2791 0.1075 0.0006 0.0000 -1.0000
40.3113 18.9379 12.2454 0.4712 0.8165 0.3336
1.9204 21.1820 60.9748 0.4712 0.8165 0.3336
-39.5228 -20.3896 0.1079 0.0006 0.0000 -1.0000
-15.7084 16.1134 0.1227 0.0006 0.0000 -1.0000
-24.8803 -15.0362 0.1170 0.0006 0.0000 -1.0000
-35.6956 54.5226 14.5928 -0.9430 -0.0000 0.3327
46.3195 5.9771 35.4791 0.4712 0.8165 0.3336
-40.1110 9.6855 2.0793 -0.9430 -0.0000 0.3327
-20.4768 -34.4191 0.1198 0.0006 0.0000 -1.0000
-16.9027 34.4423 55.1070 0.4712 0.8165 0.3336
41.0375 16.5705 17.0136 0.4712 0.8165 0.3336
-16.7464 -42.8140 34.3980 0.4712 -0.8165 0.3336
-8.1722 4.3972 92.5949 -0.9430 -0.0000 0.3327
62.5116 5.3474 14.1512 0.4712 0.8165 0.3336
38.6563 -13.4758 27.9504 0.4712 -0.8165 0.3336
17.6933 -17.8241 46.9156 0.4712 -0.8165 0.3336
-8.7375 -41.9032 25.3156 0.4712 -0.8165 0.3336
-22.5641 -31.0809 51.8078 -0.9430 -0.0000 0.3327
-11.6389 -29.8897 0.1252 0.0006 0.0000 -1.0000
10.1899 -28.4697 0.1388 0.0006 0.0000 -1.0000
-21.9257 53.8401 0.1189 0.0006 0.0000 -1.0000
50.4932 -7.1804 26.6396 0.4712 -0.8165 0.3336
8.5973 18.8511 57.2492 0.4712 0.8165 0.3336
30.1999 -18.9710 0.1512 0.0006 0.0000 -1.0000
8.4447 3.0129 0.1377 0.0006 0.0000 -1.0000
-37.0563 40.0533 10.7363 -0.9430 -0.0000 0.3327
36.3553 0.3374 63.3543 0.4712 0.8165 0.3336
8.3391 -38.8676 8.6265 0.4712 -0.8165 0.3336
-40.5552 31.7664 0.8203 -0.9430 -0.0000 0.3327
18.8461 25.6906 26.0357 0.4712 0.8165 0.3336
54.7874 -4.6456 26.7781 0.4712 -0.8165 0.3336
-5.6190 15.8712 84.6203 0.4712 0.8165 0.3336
-38.0604 -14.7348 7.8908 -0.9430 -0.0000 0.3327
33.4721 23.1765 11.5313 0.4712 0.8165 0.3336
45.3797 -0.1231 51.1333 0.4712 -0.8165 0.3336
-3.4889 -32.6245 40.6107 0.4712 -0.8165 0.3336
-17.4784 -5.4247 0.1216 0.0006 0.0000 -1.0000
29.7551 12.7266 42.3555 0.4712 0.8165 0.3336
11.8423 -40.2584 0.2749 0.4712 -0.8165 0.3336
36.0616 17.0856 22.7806 0.4712 0.8165 0.3336
68.5961 5.7758 4.5093 0.4712 0.8165 0.3336
-23.4805 3.3569 49.2105 -0.9430 -0.0000 0.3327
-1.7564 -11.1297 90.7690 0.4712 -0.8165 0.3336
39.0827 10.4055 34.8623 0.4712 0.8165 0.3336
-3.1903 3.3826 106.7135 -0.9430 -0.0000 0.3327
-33.2710 36.9382 21.4641 -0.9430 -0.0000 0.3327
13.3810 11.0120 69.6777 0.4712 0.8165 0.3336
1.1107 -37.6176 0.1332 0.0006 0.0000 -1.0000
-25.0945 0.4377 44.6366 -0.9430 -0.0000 0.3327
-20.2836 -10.3823 0.1199 0.0006 0.0000 -1.0000
-21.7881 -28.1272 0.1189 0.0006 0.0000 -1.0000
19.2994 32.7144 0.1445 0.0006 0.0000 -1.0000
-9.3341 38.9103 33.4828 0.4712 0.8165 0.3336
-39.5128 -3.0385 3.7745 -0.9430 -0.0000 0.3327
47.5138 1.6106 44.4786 0.4712 0.8165 0.3336
15.5910 17.8644 49.7863 0.4712 0.8165 0.3336
-14.1950 -50.9364 10.9162 0.4712 -0.8165 0.3336
72.8383 2.7744 5.8633 0.4712 0.8165 0.3336
-40.2001 49.5185 1.8269 -0.9430 -0.0000 0.3327
-21.6677 -22.8035 0.1190 0.0006 0.0000 -1.0000
2.5904 40.9281 11.7031 0.4712 0.8165 0.3336
34.8418 -0.2529 65.6986 0.4712 -0.8165 0.3336
-34.9966 -8.3387 16.5736 -0.9430 -0.0000 0.3327
-18.5844 -20.2949 63.0862 -0.9430 -0.0000 0.3327
63.9010 -2.7537 18.5366 0.4712 -0.8165 0.3336
-22.5939 -15.7280 0.1184 0.0006 0.0000 -1.0000
18.6883 29.6770 0.1441 0.0006 0.0000 -1.0000
-23.4458 -28.6352 0.1179 0.0006 0.0000 -1.0000
-16.3135 9.2987 0.1223 0.0006 0.0000 -1.0000
-21.0760 58.8307 1.3145 0.4712 0.8165 0.3336
-31.7317 -2.5774 25.8266 -0.9430 -0.0000 0.3327
44.8459 15.9460 13.1632 0.4712 0.8165 0.3336
69.4683 -6.4058 0.1757 0.0006 0.0000 -1.0000
-35.5352 54.5918 15.0473 -0.9430 -0.0000 0.3327
32.3319 18.0252 0.1526 0.0006 0.0000 -1.0000
-37.3589 -5.6447 0.1093 0.0006 0.0000 -1.0000
-11.6682 52.3785 3.8180 0.4712 0.8165 0.3336
29.9649 1.3518 69.8972 0.4712 0.8165 0.3336
-9.7440 18.3475 84.3859 0.4712 0.8165 0.3336
50.2499 16.6811 0.1637 0.0006 0.0000 -1.0000
7.9753 24.9704 43.1516 0.4712 0.8165 0.3336
-14.4966 -47.7935 0.1235 0.0006 0.0000 -1.0000
-26.8573 -43.2449 39.6406 -0.9430 -0.0000 0.3327
-40.1171 -51.4689 2.0619 -0.9430 -0.0000 0.3327
-3.1823 19.7926 0.1305 0.0006 0.0000 -1.0000
16.6036 -22.1844 0.1428 0.0006 0.0000 -1.0000
0.4439 -22.0856 60.8486 0.4712 -0.8165 0.3336
-37.5419 -20.5245 0.1091 0.0006 0.0000 -1.0000
10.9797 -17.5749 57.0074 0.4712 -0.8165 0.3336
13.5851 -7.0694 0.1409 0.0006 0.0000 -1.0000
-17.9884 55.5254 5.0430 0.4712 0.8165 0.3336
69.2820 -2.2705 12.1193 0.4712 -0.8165 0.3336
-21.9592 -45.5577 0.1188 0.0006 0.0000 -1.0000
22.7182 12.8164 52.0744 0.4712 0.8165 0.3336
3.8718 14.7697 73.9118 0.4712 0.8165 0.3336
-22.8524 -47.9125 30.5441 0.4712 -0.8165 0.3336
-38.5027 -48.4646 0.1085 0.0006 0.0000 -1.0000
31.6818 -25.7923 7.6582 0.4712 -0.8165 0.3336
30.5413 -10.3885 46.9672 0.4712 -0.8165 0.3336
36.3365 22.4954 0.1551 0.0006 0.0000 -1.0000
-12.2015 -49.6211 11.3196 0.4712 -0.8165 0.3336
-19.2927 -47.4307 0.1205 0.0006 0.0000 -1.0000
26.7723 17.5455 34.7749 0.4712 0.8165 0.3336
26.1398 -20.8710 27.5296 0.4712 -0.8165 0.3336
-22.6797 9.2365 0.1184 0.0006 0.0000 -1.0000
20.6853 -22.6401 30.9037 0.4712 -0.8165 0.3336
-40.7561 -53.0679 0.2509 -0.9430 -0.0000 0.3327
30.4724 -12.1787 42.6835 0.4712 -0.8165 0.3336
-27.3734 61.3888 3.9482 0.4712 0.8165 0.3336
-7.5096 -32.9460 45.5027 0.4712 -0.8165 0.3336
-39.7216 -48.9404 0.1078 0.0006 0.0000 -1.0000
28.7543 27.5309 0.1504 0.0006 0.0000 -1.0000
-19.5391 16.0337 60.3806 -0.9430 -0.0000 0.3327
-10.9004 39.6615 0.1257 0.0006 0.0000 -1.0000
-19.3534 49.2702 0.1205 0.0006 0.0000 -1.0000
5.5230 -33.2033 26.4663 0.4712 -0.8165 0.3336
-16.3211 17.1173 69.5006 -0.9430 -0.0000 0.3327
11.2180 8.5123 0.1395 0.0006 0.0000 -1.0000
-0.0305 -16.4308 0.1325 0.0006 0.0000 -1.0000
-24.6091 -29.2470 46.0121 -0.9430 -0.0000 0.3327
0.4816 35.7118 27.4474 0.4712 0.8165 0.3336
8.7050 29.0704 32.0869 0.4712 0.8165 0.3336
-7.1885 -11.0823 95.3826 -0.9430 -0.0000 0.3327
2.4682 -38.8549 16.9494 0.4712 -0.8165 0.3336
-29.6904 -22.4655 31.6115 -0.9430 -0.0000 0.3327
14.4851 -0.5527 93.7159 0.4712 -0.8165 0.3336
40.2285 12.2162 28.8126 0.4712 0.8165 0.3336
26.4421 5.5212 0.1489 0.0006 0.0000 -1.0000
18.9490 3.9067 79.2030 0.4712 0.8165 0.3336
-26.9142 -57.4670 12.8977 0.4712 -0.8165 0.3336
-15.3325 -26.8354 71.5061 0.4712 -0.8165 0.3336
33.4808 -9.1439 45.8616 0.4712 -0.8165 0.3336
10.7022 -36.6185 10.7933 0.4712 -0.8165 0.3336
-16.0627 5.4919 0.1225 0.0006 0.0000 -1.0000
-6.8806 -36.7032 35.4190 0.4712 -0.8165 0.3336
-36.2640 35.4423 0.1099 0.0006 0.0000 -1.0000
41.0670 -4.9301 0.1580 0.0006 0.0000 -1.0000
31.2159 -17.8224 0.1519 0.0006 0.0000 -1.0000
-23.7371 38.3761 48.4835 -0.9430 -0.0000 0.3327
30.3307 27.0827 6.4084 0.4712 0.8165 0.3336
6.7619 33.7829 23.2981 0.4712 0.8165 0.3336
3.5335 43.7026 3.5809 0.4712 0.8165 0.3336
-20.3498 19.8207 58.0830 -0.9430 -0.0000 0.3327
26.3262 -24.0855 19.3994 0.4712 -0.8165 0.3336
-30.9152 -20.8880 28.1406 -0.9430 -0.0000 0.3327
-31.3601 21.0880 26.8795 -0.9430 -0.0000 0.3327
-28.6440 -2.7170 34.5770 -0.9430 -0.0000 0.3327
-32.2422 14.2676 24.3798 -0.9430 -0.0000 0.3327
-9.3010 -25.4778 66.3099 0.4712 -0.8165 0.3336
-17.9600 40.9171 40.7542 0.4712 0.8165 0.3336
-23.6857 59.1341 4.2578 0.4712 0.8165 0.3336
-30.2493 -1.8551 30.0277 -0.9430 -0.0000 0.3327
28.8512 -17.7717 0.1504 0.0006 0.0000 -1.0000
1.3149 -16.5326 73.2085 0.4712 -0.8165 0.3336
15.8695 31.7212 15.4805 0.4712 0.8165 0.3336
50.2698 -6.4688 28.6965 0.4712 -0.8165 0.3336
40.8957 2.5241 51.5902 0.4712 0.8165 0.3336
-37.6091 20.8270 9.1696 -0.9430 -0.0000 0.3327
-6.9305 27.6697 0.1282 0.0006 0.0000 -1.0000
2.7824 -4.6370 100.2485 0.4712 -0.8165 0.3336
-5.3653 15.1431 86.0440 0.4712 0.8165 0.3336
-16.8387 5.0923 0.1220 0.0006 0.0000 -1.0000
-21.0238 -11.1632 56.1730 -0.9430 -0.0000 0.3327
9.4398 -1.1013 99.4989 0.4712 -0.8165 0.3336
-22.7070 15.7401 51.4027 -0.9430 -0.0000 0.3327
-19.2053 28.7741 61.3267 -0.9430 -0.0000 0.3327
42.8947 -10.1898 30.0062 0.4712 -0.8165 0.3336
-5.0919 -30.6841 47.6236 0.4712 -0.8165 0.3336
-24.5271 -31.7271 46.2446 -0.9430 -0.0000 0.3327
2.2300 40.8174 12.4828 0.4712 0.8165 0.3336
-26.4790 -14.0019 0.1160 0.0006 0.0000 -1.0000
-19.6676 40.4288 44.3611 0.4712 0.8165 0.3336
57.6026 9.2936 11.4267 0.4712 0.8165 0.3336
50.4843 3.7759 34.9840 0.4712 0.8165 0.3336
-34.5070 -32.5042 0.1110 0.0006 0.0000 -1.0000
18.3079 0.0821 89.4684 0.4712 0.8165 0.3336
15.9731 -28.2646 0.1424 0.0006 0.0000 -1.0000
-22.9645 11.8040 50.6730 -0.9430 -0.0000 0.3327
28.1703 7.8554 56.5153 0.4712 0.8165 0.3336
54.2753 -14.6171 3.0977 0.4712 -0.8165 0.3336
33.3393 17.7771 24.9332 0.4712 0.8165 0.3336
43.7891 2.3114 0.1597 0.0006 0.0000 -1.0000
54.1501 -5.1126 26.5354 0.4712 -0.8165 0.3336
12.5090 17.0015 56.2510 0.4712 0.8165 0.3336
33.0965 10.1042 44.0544 0.4712 0.8165 0.3336
-27.6611 18.9273 37.3628 -0.9430 -0.0000 0.3327
-31.4551 55.0141 25.3141 0.4712 0.8165 0.3336
-23.9795 56.0873 12.1293 0.4712 0.8165 0.3336
-5.5914 1.3359 99.9089 -0.9430 -0.0000 0.3327
-7.8481 47.3787 10.6591 0.4712 0.8165 0.3336
-3.9474 -26.3784 56.5447 0.4712 -0.8165 0.3336
-12.3858 -9.3585 0.1248 0.0006 0.0000 -1.0000
-19.5575 -28.4818 0.1203 0.0006 0.0000 -1.0000
-16.8516 2.8530 67.9970 -0.9430 -0.0000 0.3327
-6.4290 -26.2341 0.1285 0.0006 0.0000 -1.0000
36.1604 -17.4073 21.8538 0.4712 -0.8165 0.3336
-22.2133 15.6007 52.8020 -0.9430 -0.0000 0.3327
-35.9335 34.2078 0.1101 0.0006 0.0000 -1.0000
14.2086 -29.9986 22.0423 0.4712 -0.8165 0.3336
-21.0068 -45.3729 34.1526 0.4712 -0.8165 0.3336
55.7354 2.7246 0.1671 0.0006 0.0000 -1.0000
17.1450 -6.5309 75.3285 0.4712 -0.8165 0.3336
10.6285 28.5150 30.7294 0.4712 0.8165 0.3336
8.6968 11.5936 74.8701 0.4712 0.8165 0.3336
-35.7413 47.7718 14.4632 -0.9430 -0.0000 0.3327
-36.9709 32.6222 10.9783 -0.9430 -0.0000 0.3327
-33.5474 11.7082 20.6807 -0.9430 -0.0000 0.3327
9.2364 -0.3551 0.1382 0.0006 0.0000 -1.0000
-14.8278 -23.8006 73.7327 -0.9430 -0.0000 0.3327
-9.4363 16.2951 88.9743 0.4712 0.8165 0.3336
-14.0311 -47.7542 18.4725 0.4712 -0.8165 0.3336
-7.9847 9.2422 0.1275 0.0006 0.0000 -1.0000
-37.4081 -5.2450 9.7394 -0.9430 -0.0000 0.3327
-30.2551 60.6667 9.7853 0.4712 0.8165 0.3336
43.0400 -4.8873 42.7781 0.4712 -0.8165 0.3336
-14.3750 -22.3943 75.0160 -0.9430 -0.0000 0.3327
8.3509 10.4994 78.0364 0.4712 0.8165 0.3336
-2.6676 32.6601 39.3638 0.4712 0.8165 0.3336
66.5273 1.5051 17.8832 0.4712 0.8165 0.3336
3.2013 19.5174 63.2393 0.4712 0.8165 0.3336
27.4857 22.4472 21.7713 0.4712 0.8165 0.3336
-24.1367 51.8837 22.6391 0.4712 0.8165 0.3336
20.7285 -21.7405 0.1454 0.0006 0.0000 -1.0000
-40.5966 -39.6863 0.1072 0.0006 0.0000 -1.0000
-30.0022 53.7575 0.1138 0.0006 0.0000 -1.0000
-5.4510 -40.8007 23.3720 0.4712 -0.8165 0.3336
-21.2423 -16.7368 55.5536 -0.9430 -0.0000 0.3327
-10.3791 27.4416 63.0264 0.4712 0.8165 0.3336
-36.4435 28.4201 0.1098 0.0006 0.0000 -1.0000
-11.7810 7.9372 0.1252 0.0006 0.0000 -1.0000
-1.1667 26.8320 0.1318 0.0006 0.0000 -1.0000
56.3093 -11.0722 8.9005 0.4712 -0.8165 0.3336
40.0582 14.9846 22.2778 0.4712 0.8165 0.3336
-29.3829 -40.6511 0.1142 0.0006 0.0000 -1.0000
30.5612 -7.3099 0.1515 0.0006 0.0000 -1.0000
-2.6562 -3.2990 108.2272 -0.9430 -0.0000 0.3327
-8.3294 0.7142 0.1273 0.0006 0.0000 -1.0000
78.1067 1.3174 1.9882 0.4712 0.8165 0.3336
33.6286 -0.1127 67.7554 0.4712 -0.8165 0.3336
-18.5330 4.2803 63.2319 -0.9430 -0.0000 0.3327
32.8226 4.8988 57.1804 0.4712 0.8165 0.3336
-26.9194 -36.2466 39.4648 -0.9430 -0.0000 0.3327
10.8417 18.1785 55.7253 0.4712 0.8165 0.3336
6.4451 10.5581 80.5845 0.4712 0.8165 0.3336
10.7720 10.0686 75.6713 0.4712 0.8165 0.3336
-15.9892 0.8821 70.4410 -0.9430 -0.0000 0.3327
-15.0771 42.8557 31.9382 0.4712 0.8165 0.3336
7.5539 -30.5262 0.1372 0.0006 0.0000 -1.0000
1.7472 40.7654 13.2921 0.4712 0.8165 0.3336
37.7474 -0.5739 60.8093 0.4712 -0.8165 0.3336
13.6857 -34.5219 11.7107 0.4712 -0.8165 0.3336
10.7388 38.9034 5.1496 0.4712 0.8165 0.3336
52.5796 -12.0469 0.1652 0.0006 0.0000 -1.0000
-10.4998 -3.6087 0.1260 0.0006 0.0000 -1.0000
12.1057 24.8515 37.6089 0.4712 0.8165 0.3336
-27.7081 -56.9879 15.1914 0.4712 -0.8165 0.3336
-6.0706 8.2700 98.5507 -0.9430 -0.0000 0.3327
-19.3779 -34.7906 0.1204 0.0006 0.0000 -1.0000
-19.2287 -1.6034 61.2602 -0.9430 -0.0000 0.3327
44.5925 -12.6801 21.5137 0.4712 -0.8165 0.3336
24.3678 -12.8529 49.6553 0.4712 -0.8165 0.3336
-11.0255 -11.2040 84.5086 -0.9430 -0.0000 0.3327
-16.7897 -41.3701 37.9928 0.4712 -0.8165 0.3336
55.0859 4.4135 26.9245 0.4712 0.8165 0.3336
8.0335 41.4851 2.6524 0.4712 0.8165 0.3336
4.0491 41.3807 8.5353 0.4712 0.8165 0.3336
9.7647 31.2596 25.2325 0.4712 0.8165 0.3336
-17.4755 -4.0433 0.1216 0.0006 0.0000 -1.0000
-5.6267 -5.2334 0.1290 0.0006 0.0000 -1.0000
38.0197 -4.6540 0.1561 0.0006 0.0000 -1.0000
-9.9257 21.5331 0.1263 0.0006 0.0000 -1.0000
59.2203 -7.6625 13.1339 0.4712 -0.8165 0.3336
69.4318 -1.7431 0.1756 0.0006 0.0000 -1.0000
15.6479 -13.3490 60.7567 0.4712 -0.8165 0.3336
-40.2260 -32.7451 1.7534 -0.9430 -0.0000 0.3327
23.7305 -11.9812 52.6886 0.4712 -0.8165 0.3336
-34.8916 12.5769 16.8712 -0.9430 -0.0000 0.3327
27.3079 -1.8181 72.5087 0.4712 -0.8165 0.3336
-37.6043 9.7450 0.1091 0.0006 0.0000 -1.0000
-26.2673 31.8266 41.3127 -0.9430 -0.0000 0.3327
-32.2443 9.4660 24.3736 -0.9430 -0.0000 0.3327
7.7003 -12.6433 0.1373 0.0006 0.0000 -1.0000
-40.5237 -21.9827 0.9097 -0.9430 -0.0000 0.3327
48.1640 -10.8137 21.0374 0.4712 -0.8165 0.3336
8.1227 -12.1036 74.4328 0.4712 -0.8165 0.3336
51.6766 -10.9452 15.7544 0.4712 -0.8165 0.3336
29.2683 14.4433 0.1507 0.0006 0.0000 -1.0000
-31.2940 -55.1868 24.6638 0.4712 -0.8165 0.3336
-37.9312 40.3396 8.2568 -0.9430 -0.0000 0.3327
15.7660 17.8407 49.5970 0.4712 0.8165 0.3336
-32.2576 -46.0613 24.3360 -0.9430 -0.0000 0.3327
-37.1978 58.7960 10.3354 -0.9430 -0.0000 0.3327
31.4011 -0.5036 0.1520 0.0006 0.0000 -1.0000
9.3787 -0.1343 101.9517 0.4712 -0.8165 0.3336
43.5615 -5.0768 41.5778 0.4712 -0.8165 0.3336
-16.5875 32.2345 60.0652 0.4712 0.8165 0.3336
11.5551 38.4924 5.0029 0.4712 0.8165 0.3336
-1.4631 18.5519 72.1902 0.4712 0.8165 0.3336
50.8085 -7.9732 24.2539 0.4712 -0.8165 0.3336
-14.5001 9.0762 74.6613 -0.9430 -0.0000 0.3327
-16.0093 -11.9200 70.3841 -0.9430 -0.0000 0.3327
69.2396 4.4326 6.8877 0.4712 0.8165 0.3336
23.3400 9.8479 0.1470 0.0006 0.0000 -1.0000
13.5535 2.2380 90.9071 0.4712 0.8165 0.3336
8.2557 38.0676 10.7023 0.4712 0.8165 0.3336
-16.3290 43.0266 0.1223 0.0006 0.0000 -1.0000
52.0493 10.4835 16.3579 0.4712 0.8165 0.3336
8.8315 -25.1067 41.6088 0.4712 -0.8165 0.3336
45.6132 -6.5851 34.9888 0.4712 -0.8165 0.3336
-6.4777 16.4745 84.3567 0.4712 0.8165 0.3336
-1.1019 -42.7003 12.5807 0.4712 -0.8165 0.3336
21.2889 -19.7135 37.2134 0.4712 -0.8165 0.3336
25.0332 9.3701 57.2390 0.4712 0.8165 0.3336
31.7549 -18.1485 26.2620 0.4712 -0.8165 0.3336
10.0088 25.2367 39.6277 0.4712 0.8165 0.3336
-31.5727 27.5616 0.1129 0.0006 0.0000 -1.0000
-7.1590 49.7729 0.1280 0.0006 0.0000 -1.0000
5.2054 -20.3792 58.2998 0.4712 -0.8165 0.3336
23.7821 -30.8330 6.4791 0.4712 -0.8165 0.3336
-12.5809 29.1033 0.1247 0.0006 0.0000 -1.0000
-35.5149 -11.2704 15.1049 -0.9430 -0.0000 0.3327
8.3940 12.0434 0.1377 0.0006 0.0000 -1.0000
-18.4819 20.0454 0.1210 0.0006 0.0000 -1.0000
20.1599 16.8000 0.1450 0.0006 0.0000 -1.0000
-40.7388 -8.6916 0.1072 0.0006 0.0000 -1.0000
47.6889 -5.1626 0.1621 0.0006 0.0000 -1.0000
-7.9335 29.2395 55.1724 0.4712 0.8165 0.3336
-34.8356 -54.1304 17.0299 -0.9430 -0.0000 0.3327
25.6928 7.4810 60.9307 0.4712 0.8165 0.3336
-28.4023 46.3510 35.2621 -0.9430 -0.0000 0.3327
-2.0068 19.7389 0.1312 0.0006 0.0000 -1.0000
41.1966 -22.1200 3.2074 0.4712 -0.8165 0.3336
13.2324 3.7438 87.6754 0.4712 0.8165 0.3336
42.6911 14.1136 20.6910 0.4712 0.8165 0.3336
58.0498 -8.8713 0.1686 0.0006 0.0000 -1.0000
-1.1629 -33.3520 35.5452 0.4712 -0.8165 0.3336
-15.4087 38.8625 42.1794 0.4712 0.8165 0.3336
1.9799 -9.8086 88.7253 0.4712 -0.8165 0.3336
-4.6291 -29.9327 48.8090 0.4712 -0.8165 0.3336
-12.8845 -2.5932 79.2399 -0.9430 -0.0000 0.3327
8.1406 -33.7743 21.3718 0.4712 -0.8165 0.3336
37.2130 -10.7845 36.5755 0.4712 -0.8165 0.3336
-28.9045 -60.8032 7.5436 0.4712 -0.8165 0.3336
23.1040 17.5474 39.9512 0.4712 0.8165 0.3336
-4.6004 -10.5981 96.0868 0.4712 -0.8165 0.3336
-10.8877 30.3450 56.6392 0.4712 0.8165 0.3336
48.5704 -6.5446 0.1627 0.0006 0.0000 -1.0000
-18.2366 -16.4991 64.0720 -0.9430 -0.0000 0.3327
-33.5753 -21.8128 20.6016 -0.9430 -0.0000 0.3327
10.3917 -4.0463 90.9471 0.4712 -0.8165 0.3336
-20.6144 24.9047 57.3331 -0.9430 -0.0000 0.3327
30.3550 9.2149 50.1024 0.4712 0.8165 0.3336
-32.4311 25.7791 0.1123 0.0006 0.0000 -1.0000
-18.6290 -18.9607 62.9598 -0.9430 -0.0000 0.3327
58.3527 6.1136 0.1687 0.0006 0.0000 -1.0000
-5.0837 12.9584 90.9928 0.4712 0.8165 0.3336
41.3363 8.1016 0.1582 0.0006 0.0000 -1.0000
-38.8845 -22.3074 0.1083 0.0006 0.0000 -1.0000
21.8238 -12.6289 53.7965 0.4712 -0.8165 0.3336
-28.8157 7.9281 34.0904 -0.9430 -0.0000 0.3327
51.5742 -2.1477 37.4294 0.4712 -0.8165 0.3336
6.0145 14.3883 71.8189 0.4712 0.8165 0.3336
6.2808 14.0107 72.3669 0.4712 0.8165 0.3336
-19.9976 -30.3042 0.1201 0.0006 0.0000 -1.0000
68.5028 4.6086 7.4978 0.4712 0.8165 0.3336
25.2319 31.6068 0.1482 0.0006 0.0000 -1.0000
56.8982 -4.1042 0.1678 0.0006 0.0000 -1.0000
-30.7460 25.3577 28.6200 -0.9430 -0.0000 0.3327
16.8048 -9.0884 69.5499 0.4712 -0.8165 0.3336
19.6490 3.3139 79.6651 0.4712 0.8165 0.3336
34.7318 21.3610 14.1954 0.4712 0.8165 0.3336
38.6294 14.8870 24.5348 0.4712 0.8165 0.3336
-26.5398 -13.5145 0.1160 0.0006 0.0000 -1.0000
58.8526 -10.4084 6.9331 0.4712 -0.8165 0.3336
13.5765 -3.2064 88.5046 0.4712 -0.8165 0.3336
74.5548 0.2596 9.5937 0.4712 0.8165 0.3336
38.3308 -3.4283 52.9997 0.4712 -0.8165 0.3336
4.2278 -35.3936 22.9352 0.4712 -0.8165 0.3336
-38.0115 3.4996 8.0294 -0.9430 -0.0000 0.3327
-31.9090 26.0986 25.3241 -0.9430 -0.0000 0.3327
-24.1456 -46.7821 35.1370 0.4712 -0.8165 0.3336
-1.6436 13.3380 85.2052 0.4712 0.8165 0.3336
-9.5703 40.8570 29.0521 0.4712 0.8165 0.3336
-30.7654 -46.6728 28.5650 -0.9430 -0.0000 0.3327
37.9543 -3.9029 52.3700 0.4712 -0.8165 0.3336
-40.7804 -60.9883 0.1822 -0.9430 -0.0000 0.3327
4.2909 25.6390 46.7191 0.4712 0.8165 0.3336
68.0139 7.3186 1.5559 0.4712 0.8165 0.3336
30.7448 -19.3679 0.1516 0.0006 0.0000 -1.0000
-29.1322 -0.4819 33.1935 -0.9430 -0.0000 0.3327
-34.0547 50.0518 19.2431 -0.9430 -0.0000 0.3327
46.5382 -11.1753 22.4486 0.4712 -0.8165 0.3336
22.7912 -5.4520 69.9944 0.4712 -0.8165 0.3336
51.0590 -1.4235 39.9294 0.4712 -0.8165 0.3336
-27.4026 59.8898 7.6579 0.4712 0.8165 0.3336
-40.3525 -32.3025 1.3948 -0.9430 -0.0000 0.3327
-32.0209 9.4655 25.0068 -0.9430 -0.0000 0.3327
33.4923 7.1875 0.1533 0.0006 0.0000 -1.0000
36.6657 -23.3660 0.1553 0.0006 0.0000 -1.0000
4.9911 41.4079 0.1356 0.0006 0.0000 -1.0000
7.8708 -15.3344 66.8816 0.4712 -0.8165 0.3336
36.0436 -20.0441 0.1549 0.0006 0.0000 -1.0000
-17.8844 -40.2837 42.1977 0.4712 -0.8165 0.3336
-35.2356 40.8283 15.8964 -0.9430 -0.0000 0.3327
-21.4154 -51.4973 19.7412 0.4712 -0.8165 0.3336
-11.2195 27.4261 0.1255 0.0006 0.0000 -1.0000
-36.3613 13.7941 12.7060 -0.9430 -0.0000 0.3327
-3.8370 37.1386 0.1301 0.0006 0.0000 -1.0000
-10.0255 12.9239 87.3424 -0.9430 -0.0000 0.3327
-29.1226 17.5254 0.1144 0.0006 0.0000 -1.0000
60.2343 5.5725 16.8167 0.4712 0.8165 0.3336
14.4430 33.8941 12.1777 0.4712 0.8165 0.3336
-11.3300 29.1282 60.2420 0.4712 0.8165 0.3336
-37.2812 -11.0425 0.1093 0.0006 0.0000 -1.0000
47.5071 6.3878 32.7968 0.4712 0.8165 0.3336
-8.3365 0.2535 92.1292 -0.9430 -0.0000 0.3327
2.5127 40.8792 11.9323 0.4712 0.8165 0.3336
-32.3471 25.9506 0.1124 0.0006 0.0000 -1.0000
-39.9607 -57.6081 2.5051 -0.9430 -0.0000 0.3327
47.7654 -0.6631 46.4421 0.4712 -0.8165 0.3336
-12.9040 -9.1629 0.1245 0.0006 0.0000 -1.0000
64.1263 -0.3306 0.1723 0.0006 0.0000 -1.0000
7.4972 -33.7820 22.2619 0.4712 -0.8165 0.3336
27.3875 30.8884 1.2513 0.4712 0.8165 0.3336
28.5945 -7.1624 57.6121 0.4712 -0.8165 0.3336
-26.3083 25.2023 0.1161 0.0006 0.0000 -1.0000
19.7105 9.2000 65.1727 0.4712 0.8165 0.3336
33.7055 -1.8296 63.4450 0.4712 -0.8165 0.3336
-15.9269 42.1382 0.1226 0.0006 0.0000 -1.0000
39.2829 23.9289 1.4833 0.4712 0.8165 0.3336
21.2559 -3.2090 77.6522 0.4712 -0.8165 0.3336
26.6262 -23.4314 20.5763 0.4712 -0.8165 0.3336
31.3847 -15.7349 32.6917 0.4712 -0.8165 0.3336
-11.6506 -47.2846 16.2597 0.4712 -0.8165 0.3336
-32.5353 -42.0521 23.5490 -0.9430 -0.0000 0.3327
-20.4320 -16.5944 57.8502 -0.9430 -0.0000 0.3327
-24.0967 46.4974 35.7647 0.4712 0.8165 0.3336
12.3580 -23.8089 39.8042 0.4712 -0.8165 0.3336
-21.3138 -38.9217 50.3745 0.4712 -0.8165 0.3336
-31.5543 9.2387 0.1129 0.0006 0.0000 -1.0000
38.5121 -15.3703 0.1564 0.0006 0.0000 -1.0000
-10.8382 11.5890 85.0393 -0.9430 -0.0000 0.3327
28.1333 -24.8967 14.8619 0.4712 -0.8165 0.3336
27.3142 10.4736 51.3167 0.4712 0.8165 0.3336
-37.9330 -49.6382 0.1089 0.0006 0.0000 -1.0000
2.9714 -9.8340 87.2628 0.4712 -0.8165 0.3336
24.8485 23.6255 22.6121 0.4712 0.8165 0.3336
-0.2813 -5.9998 101.2403 0.4712 -0.8165 0.3336
46.5347 -7.2313 32.1056 0.4712 -0.8165 0.3336
3.5984 -31.3159 33.8036 0.4712 -0.8165 0.3336
-11.2630 45.0461 21.1906 0.4712 0.8165 0.3336
-18.9159 41.4099 40.8982 0.4712 0.8165 0.3336
-12.0724 53.1801 2.4271 0.4712 0.8165 0.3336
-20.7162 -24.1185 57.0448 -0.9430 -0.0000 0.3327
-34.3570 -41.4231 18.3862 -0.9430 -0.0000 0.3327
-12.9067 -34.3820 49.6110 0.4712 -0.8165 0.3336
-34.0066 -13.7016 19.3794 -0.9430 -0.0000 0.3327
15.2817 6.8923 77.0754 0.4712 0.8165 0.3336
-1.6822 -43.4944 0.1314 0.0006 0.0000 -1.0000
-6.3368 -21.5211 0.1285 0.0006 0.0000 -1.0000
0.8914 25.3835 0.1330 0.0006 0.0000 -1.0000
1.1996 -27.0319 47.6760 0.4712 -0.8165 0.3336
-34.3578 65.8742 0.1111 0.0006 0.0000 -1.0000
-26.1923 58.2307 10.0088 0.4712 0.8165 0.3336
33.4919 20.8190 17.2730 0.4712 0.8165 0.3336
24.2683 -18.0778 0.1476 0.0006 0.0000 -1.0000
39.8321 12.1630 29.5026 0.4712 0.8165 0.3336
-9.5998 46.7620 14.6424 0.4712 0.8165 0.3336
4.6561 -30.8051 33.5600 0.4712 -0.8165 0.3336
-33.0573 -50.1581 0.1119 0.0006 0.0000 -1.0000
1.8625 16.6326 72.1904 0.4712 0.8165 0.3336
19.2124 34.0690 0.1444 0.0006 0.0000 -1.0000
-16.9757 -48.7184 20.2716 0.4712 -0.8165 0.3336
15.8871 -4.2740 0.1424 0.0006 0.0000 -1.0000
-14.1732 -8.3327 75.5879 -0.9430 -0.0000 0.3327
-36.2359 -36.6838 13.0614 -0.9430 -0.0000 0.3327
15.5262 34.6587 8.7767 0.4712 0.8165 0.3336
32.7544 3.7757 60.0254 0.4712 0.8165 0.3336
-34.9804 -59.3212 0.1107 0.0006 0.0000 -1.0000
-17.4046 39.5875 0.1217 0.0006 0.0000 -1.0000
50.0063 15.8112 6.2047 0.4712 0.8165 0.3336
-34.1956 -2.0413 0.1112 0.0006 0.0000 -1.0000
30.5618 -11.0321 45.3632 0.4712 -0.8165 0.3336
-18.1914 22.0631 64.2000 -0.9430 -0.0000 0.3327
51.8662 4.2292 31.9230 0.4712 0.8165 0.3336
-8.2956 5.9186 92.2450 -0.9430 -0.0000 0.3327
34.0825 -9.2960 44.6396 0.4712 -0.8165 0.3336
17.3567 3.5832 82.2436 0.4712 0.8165 0.3336
-39.2301 22.1774 0.1081 0.0006 0.0000 -1.0000
31.8180 -7.2672 0.1523 0.0006 0.0000 -1.0000
-0.6778 -20.8210 65.5279 0.4712 -0.8165 0.3336
-6.9841 -8.0644 95.9618 -0.9430 -0.0000 0.3327
18.0223 35.4072 3.4193 0.4712 0.8165 0.3336
-40.5059 -14.4902 0.1073 0.0006 0.0000 -1.0000
20.8327 1.8597 81.5521 0.4712 0.8165 0.3336
-2.2059 -15.5522 80.5804 0.4712 -0.8165 0.3336
3.2605 -20.9776 59.5822 0.4712 -0.8165 0.3336
-8.8113 -28.6005 0.1270 0.0006 0.0000 -1.0000
15.3015 -30.2322 19.9270 0.4712 -0.8165 0.3336
-23.9491 -44.0936 41.4389 0.4712 -0.8165 0.3336
15.0287 34.4791 9.9187 0.4712 0.8165 0.3336
27.1828 11.7333 48.4196 0.4712 0.8165 0.3336
19.9347 -31.5360 10.1925 0.4712 -0.8165 0.3336
-33.8211 -53.1400 19.9051 -0.9430 -0.0000 0.3327
49.9389 5.9068 0.1635 0.0006 0.0000 -1.0000
-4.7836 -6.5401 102.1981 -0.9430 -0.0000 0.3327
48.6521 -10.7418 0.1627 0.0006 0.0000 -1.0000
-5.4007 1.3650 100.4493 -0.9430 -0.0000 0.3327
-18.0155 -4.9192 64.6985 -0.9430 -0.0000 0.3327
6.1141 37.6992 14.6284 0.4712 0.8165 0.3336
41.9168 13.6399 22.9439 0.4712 0.8165 0.3336
-25.1641 17.6715 0.1168 0.0006 0.0000 -1.0000
-3.9755 -21.1869 69.2899 0.4712 -0.8165 0.3336
-40.3837 -58.3503 1.3065 -0.9430 -0.0000 0.3327
-28.5546 -9.5276 34.8303 -0.9430 -0.0000 0.3327
-20.9724 -27.8309 56.3186 -0.9430 -0.0000 0.3327
40.7693 2.9314 50.7718 0.4712 0.8165 0.3336
44.7653 -8.7253 30.9484 0.4712 -0.8165 0.3336
-32.2224 2.5053 0.1125 0.0006 0.0000 -1.0000
-5.7788 -47.8475 6.5891 0.4712 -0.8165 0.3336
-31.5435 -8.4704 26.3598 -0.9430 -0.0000 0.3327
9.3214 15.7450 63.8282 0.4712 0.8165 0.3336
-20.6920 -55.0452 0.1196 0.0006 0.0000 -1.0000
49.5375 -8.6910 0.1633 0.0006 0.0000 -1.0000
45.7940 0.2440 50.2520 0.4712 0.8165 0.3336
-17.3144 -30.0678 66.3945 0.4712 -0.8165 0.3336
-28.6077 -24.9943 0.1147 0.0006 0.0000 -1.0000
-5.9940 48.8966 0.1288 0.0006 0.0000 -1.0000
-10.0145 -25.0392 68.3909 0.4712 -0.8165 0.3336
7.5097 -17.1680 0.1371 0.0006 0.0000 -1.0000
8.3196 -39.2237 7.7826 0.4712 -0.8165 0.3336
-7.2565 48.1998 7.8139 0.4712 0.8165 0.3336
-14.3364 -18.9098 0.1236 0.0006 0.0000 -1.0000
3.4636 6.9974 93.5098 0.4712 0.8165 0.3336
-6.6104 -17.6680 81.6231 0.4712 -0.8165 0.3336
18.8781 -21.5833 36.0424 0.4712 -0.8165 0.3336
35.3566 -18.8581 19.4385 0.4712 -0.8165 0.3336
-5.0004 -40.4982 23.4760 0.4712 -0.8165 0.3336
-23.5652 26.2424 48.9705 -0.9430 -0.0000 0.3327
-7.4539 -39.9537 0.1278 0.0006 0.0000 -1.0000
-30.6233 -9.7976 28.9678 -0.9430 -0.0000 0.3327
6.1490 -16.4753 66.5213 0.4712 -0.8165 0.3336
17.6745 -5.0427 78.2228 0.4712 -0.8165 0.3336
-2.8177 31.4266 42.5945 0.4712 0.8165 0.3336
24.4233 30.0708 7.4388 0.4712 0.8165 0.3336
-10.0542 4.6254 87.2612 -0.9430 -0.0000 0.3327
-15.7286 -37.0447 47.0799 0.4712 -0.8165 0.3336
-22.7202 0.6527 51.3653 -0.9430 -0.0000 0.3327
13.1833 -20.2914 47.2471 0.4712 -0.8165 0.3336
45.3818 16.6073 10.7877 0.4712 0.8165 0.3336
-34.2594 -13.1323 18.6630 -0.9430 -0.0000 0.3327
-25.7391 -20.5155 42.8098 -0.9430 -0.0000 0.3327
-36.0909 65.2620 0.1101 0.0006 0.0000 -1.0000
33.0424 11.5091 40.6924 0.4712 0.8165 0.3336
-31.3791 -9.1136 0.1130 0.0006 0.0000 -1.0000
-3.0747 -34.0685 0.1306 0.0006 0.0000 -1.0000
-31.8852 -21.3568 25.3914 -0.9430 -0.0000 0.3327
-7.1124 2.3539 0.1281 0.0006 0.0000 -1.0000
34.9789 24.1316 7.0658 0.4712 0.8165 0.3336
47.3184 -7.6281 30.0280 0.4712 -0.8165 0.3336
-23.7795 34.0684 0.1177 0.0006 0.0000 -1.0000
4.6265 -44.4674 0.1354 0.0006 0.0000 -1.0000
3.0110 2.8175 104.3786 0.4712 0.8165 0.3336
39.9493 -14.3677 23.9415 0.4712 -0.8165 0.3336
-2.6389 -34.1906 0.1308 0.0006 0.0000 -1.0000
40.9332 -19.3944 10.2499 0.4712 -0.8165 0.3336
42.0936 -7.1719 0.1586 0.0006 0.0000 -1.0000
-32.4554 55.1507 0.1123 0.0006 0.0000 -1.0000
-39.0548 -17.9873 0.1082 0.0006 0.0000 -1.0000
37.5167 25.0967 1.1196 0.4712 0.8165 0.3336
-10.5640 39.9167 32.7570 0.4712 0.8165 0.3336
-10.7690 -36.8166 40.6334 0.4712 -0.8165 0.3336
-40.0682 55.1237 2.2006 -0.9430 -0.0000 0.3327
32.7638 7.8779 49.9728 0.4712 0.8165 0.3336
70.1361 -5.6416 2.6628 0.4712 -0.8165 0.3336
13.2976 38.9090 1.5221 0.4712 0.8165 0.3336
34.8219 -3.3213 58.2176 0.4712 -0.8165 0.3336
-2.8389 20.6560 0.1307 0.0006 0.0000 -1.0000
-36.0437 -52.6201 0.1101 0.0006 0.0000 -1.0000
54.2965 6.9435 21.8477 0.4712 0.8165 0.3336
-32.6261 65.1252 2.2226 0.4712 0.8165 0.3336
43.6735 -15.6975 15.4270 0.4712 -0.8165 0.3336
-28.3004 57.9954 0.1149 0.0006 0.0000 -1.0000
-21.2800 -59.0405 1.0892 0.4712 -0.8165 0.3336
-23.2647 -27.5844 49.8223 -0.9430 -0.0000 0.3327
15.9025 -4.6219 81.7553 0.4712 -0.8165 0.3336
-36.5183 -38.4804 12.2611 -0.9430 -0.0000 0.3327
-26.9462 15.8091 39.3887 -0.9430 -0.0000 0.3327
48.9588 -8.2228 0.1629 0.0006 0.0000 -1.0000
-12.3081 -51.0470 0.1248 0.0006 0.0000 -1.0000
-28.0820 -52.0821 27.7256 0.4712 -0.8165 0.3336
-37.7951 -6.6065 8.6425 -0.9430 -0.0000 0.3327
19.3087 24.3686 0.1445 0.0006 0.0000 -1.0000
-9.2671 6.1168 89.4917 -0.9430 -0.0000 0.3327
-11.1986 49.2720 10.7576 0.4712 0.8165 0.3336
-28.5165 -6.1647 34.9384 -0.9430 -0.0000 0.3327
-14.5967 -42.7032 31.6330 0.4712 -0.8165 0.3336
-22.6068 55.5174 11.5853 0.4712 0.8165 0.3336
6.5552 -14.3883 71.0552 0.4712 -0.8165 0.3336
-40.2721 -27.8451 1.6227 -0.9430 -0.0000 0.3327
17.6314 3.8280 81.2565 0.4712 0.8165 0.3336
-10.2333 41.1500 29.2714 0.4712 0.8165 0.3336
-37.2459 31.8544 10.1990 -0.9430 -0.0000 0.3327
69.1603 -4.7818 6.1453 0.4712 -0.8165 0.3336
-8.3072 -42.1307 24.1509 0.4712 -0.8165 0.3336
-31.1875 -40.3462 0.1131 0.0006 0.0000 -1.0000
17.5829 36.3201 0.1434 0.0006 0.0000 -1.0000
-36.6828 -12.7496 0.1097 0.0006 0.0000 -1.0000
3.9549 0.8948 0.1349 0.0006 0.0000 -1.0000
-34.1152 9.2317 0.1113 0.0006 0.0000 -1.0000
-8.8930 34.8230 42.8628 0.4712 0.8165 0.3336
2.4835 13.4417 79.1224 0.4712 0.8165 0.3336
54.4774 -5.6715 0.1663 0.0006 0.0000 -1.0000
21.8721 -12.1287 54.9524 0.4712 -0.8165 0.3336
-29.4986 44.7042 0.1141 0.0006 0.0000 -1.0000
-11.3457 33.5883 49.3486 0.4712 0.8165 0.3336
-31.4242 -0.2558 26.6979 -0.9430 -0.0000 0.3327
68.1455 1.2941 0.1748 0.0006 0.0000 -1.0000
-26.0801 -11.7115 41.8431 -0.9430 -0.0000 0.3327
-22.1032 37.9592 53.1139 -0.9430 -0.0000 0.3327
53.9526 4.0206 29.4868 0.4712 0.8165 0.3336
-15.7264 -28.2268 68.6571 0.4712 -0.8165 0.3336
-14.8227 -31.9712 58.2169 0.4712 -0.8165 0.3336
2.4204 -32.2201 33.2547 0.4712 -0.8165 0.3336
-10.5801 50.9330 5.8190 0.4712 0.8165 0.3336
-19.7263 -33.9227 59.8501 -0.9430 -0.0000 0.3327
-16.6914 51.2150 0.1221 0.0006 0.0000 -1.0000
-1.0093 13.3925 84.1760 0.4712 0.8165 0.3336
-14.5336 -11.3904 0.1234 0.0006 0.0000 -1.0000
-38.2440 11.9814 7.3704 -0.9430 -0.0000 0.3327
20.9306 11.4297 57.9927 0.4712 0.8165 0.3336
-27.5778 61.3645 4.2962 0.4712 0.8165 0.3336
15.9816 34.9610 7.3934 0.4712 0.8165 0.3336
36.1366 -11.0255 37.5058 0.4712 -0.8165 0.3336
-40.4492 12.6475 1.1207 -0.9430 -0.0000 0.3327
37.4581 -21.3386 10.3998 0.4712 -0.8165 0.3336
-13.9013 3.4408 0.1238 0.0006 0.0000 -1.0000
35.0434 8.9774 44.0620 0.4712 0.8165 0.3336
-21.5814 -55.8117 9.4167 0.4712 -0.8165 0.3336
62.3706 7.2379 9.7237 0.4712 0.8165 0.3336
-28.5933 -42.8305 0.1147 0.0006 0.0000 -1.0000
-3.3249 -26.1041 56.3368 0.4712 -0.8165 0.3336
-0.6898 17.4858 73.7071 0.4712 0.8165 0.3336
-14.1404 -53.3228 4.9988 0.4712 -0.8165 0.3336
9.3525 37.4967 0.1383 0.0006 0.0000 -1.0000
-10.9268 -4.5457 84.7882 -0.9430 -0.0000 0.3327
37.8409 -11.9661 32.7968 0.4712 -0.8165 0.3336
56.3917 -9.8542 11.7651 0.4712 -0.8165 0.3336
42.6525 -6.7066 38.8730 0.4712 -0.8165 0.3336
-19.8713 -16.1461 59.4393 -0.9430 -0.0000 0.3327
2.8435 2.3248 0.1342 0.0006 0.0000 -1.0000
-2.7146 -6.4656 0.1308 0.0006 0.0000 -1.0000
-30.0019 -14.3094 30.7287 -0.9430 -0.0000 0.3327
-22.0184 -31.8685 53.3541 -0.9430 -0.0000 0.3327
-31.0636 -22.0212 27.7199 -0.9430 -0.0000 0.3327
2.4480 15.3431 74.5194 0.4712 0.8165 0.3336
17.2067 15.1232 54.2129 0.4712 0.8165 0.3336
-24.9445 38.2701 45.0615 -0.9430 -0.0000 0.3327
-23.3027 17.5391 0.1180 0.0006 0.0000 -1.0000
-33.6603 -51.3237 20.3608 -0.9430 -0.0000 0.3327
-26.2302 -14.5527 0.1162 0.0006 0.0000 -1.0000
-8.6794 -2.8291 91.1573 -0.9430 -0.0000 0.3327
7.7855 9.0335 82.4227 0.4712 0.8165 0.3336
-22.9082 16.9708 50.8324 -0.9430 -0.0000 0.3327
-26.9935 -0.0924 39.2546 -0.9430 -0.0000 0.3327
62.3386 -8.1134 7.6264 0.4712 -0.8165 0.3336
6.0694 -15.5462 68.9076 0.4712 -0.8165 0.3336
-31.6442 -13.3575 26.0745 -0.9430 -0.0000 0.3327
17.6306 -16.1528 51.0945 0.4712 -0.8165 0.3336
-31.3975 24.9627 26.7737 -0.9430 -0.0000 0.3327
-40.5682 21.9611 0.7836 -0.9430 -0.0000 0.3327
38.0214 -11.3635 34.0165 0.4712 -0.8165 0.3336
-0.6423 -9.3013 93.6702 0.4712 -0.8165 0.3336
-15.4864 -4.7534 71.8662 -0.9430 -0.0000 0.3327
-0.0511 13.0740 0.1324 0.0006 0.0000 -1.0000
-5.6832 -32.6008 43.7679 0.4712 -0.8165 0.3336
-37.8803 -35.0974 8.4012 -0.9430 -0.0000 0.3327
-23.4752 -19.4968 49.2256 -0.9430 -0.0000 0.3327
-15.5620 30.1688 63.6723 0.4712 0.8165 0.3336
-3.5615 10.1672 0.1303 0.0006 0.0000 -1.0000
-24.0646 -46.0567 36.7978 0.4712 -0.8165 0.3336
-0.1828 9.3858 92.8146 0.4712 0.8165 0.3336
-25.6183 -13.4832 43.1520 -0.9430 -0.0000 0.3327
-15.6000 29.2736 65.9167 0.4712 0.8165 0.3336
0.2372 20.3440 65.4027 0.4712 0.8165 0.3336
26.1586 4.1187 68.5016 0.4712 0.8165 0.3336
-37.9784 44.4492 8.1232 -0.9430 -0.0000 0.3327
2.9912 -6.0487 96.4986 0.4712 -0.8165 0.3336
-5.1561 4.4342 0.1293 0.0006 0.0000 -1.0000
52.9936 -0.9927 38.2514 0.4712 -0.8165 0.3336
17.8313 -5.9533 75.7727 0.4712 -0.8165 0.3336
20.1070 -23.5449 29.5060 0.4712 -0.8165 0.3336
34.3398 -12.6533 36.0598 0.4712 -0.8165 0.3336
-8.5297 46.9462 12.6802 0.4712 0.8165 0.3336
-30.0005 -19.8210 30.7327 -0.9430 -0.0000 0.3327
9.1457 15.8337 63.8593 0.4712 0.8165 0.3336
29.9765 -29.7850 0.2952 0.4712 -0.8165 0.3336
-40.7790 -57.7798 0.1861 -0.9430 -0.0000 0.3327
-9.4707 -29.0560 0.1266 0.0006 0.0000 -1.0000
12.0410 -2.0670 0.1400 0.0006 0.0000 -1.0000
-14.5769 -1.8525 74.4438 -0.9430 -0.0000 0.3327
-22.3199 -25.8804 52.4999 -0.9430 -0.0000 0.3327
-23.8659 47.6964 32.5043 0.4712 0.8165 0.3336
12.5544 -3.0248 90.3927 0.4712 -0.8165 0.3336
-19.1116 -28.1179 61.5922 -0.9430 -0.0000 0.3327
51.3400 -1.6904 38.8794 0.4712 -0.8165 0.3336
-15.4468 33.4461 55.4887 0.4712 0.8165 0.3336
-31.8294 28.9250 25.5497 -0.9430 -0.0000 0.3327
-32.4664 -51.8405 23.7444 -0.9430 -0.0000 0.3327
-26.1679 43.7387 0.1162 0.0006 0.0000 -1.0000
-12.1133 3.6644 0.1250 0.0006 0.0000 -1.0000
40.6837 -9.4431 34.9563 0.4712 -0.8165 0.3336
-30.4825 -7.5298 0.1135 0.0006 0.0000 -1.0000
17.9466 31.0146 14.2763 0.4712 0.8165 0.3336
51.9928 -0.9430 39.7866 0.4712 -0.8165 0.3336
1.6261 29.8265 0.1335 0.0006 0.0000 -1.0000
-0.3860 -33.9535 32.9760 0.4712 -0.8165 0.3336
-15.7381 -12.3985 71.1529 -0.9430 -0.0000 0.3327
-10.9039 -3.3191 0.1257 0.0006 0.0000 -1.0000
7.9439 -17.9936 60.2704 0.4712 -0.8165 0.3336
-2.8679 -10.7318 93.3126 0.4712 -0.8165 0.3336
-21.3058 -24.8078 55.3737 -0.9430 -0.0000 0.3327
-28.2535 35.6045 35.6837 -0.9430 -0.0000 0.3327
-0.0149 -13.8704 81.6020 0.4712 -0.8165 0.3336
42.2156 20.8859 4.7883 0.4712 0.8165 0.3336
-8.8642 -50.4552 4.5648 0.4712 -0.8165 0.3336
-8.3336 -23.6412 0.1273 0.0006 0.0000 -1.0000
-32.3152 3.5029 24.1729 -0.9430 -0.0000 0.3327
19.2336 -22.5069 0.1444 0.0006 0.0000 -1.0000
-24.1811 -9.5007 47.2252 -0.9430 -0.0000 0.3327
-34.4072 -12.3134 0.1111 0.0006 0.0000 -1.0000
-20.3801 -52.4969 15.8327 0.4712 -0.8165 0.3336
-11.0633 -18.3903 0.1256 0.0006 0.0000 -1.0000
-5.2645 33.0031 0.1292 0.0006 0.0000 -1.0000
0.4241 44.1897 6.7804 0.4712 0.8165 0.3336
48.5765 -14.5190 11.3865 0.4712 -0.8165 0.3336
9.0783 -26.0279 39.0056 0.4712 -0.8165 0.3336
26.1118 19.7938 30.2053 0.4712 0.8165 0.3336
-40.1570 66.4461 1.9490 -0.9430 -0.0000 0.3327
0.4411 6.7182 98.4619 0.4712 0.8165 0.3336
47.5891 14.1463 0.1621 0.0006 0.0000 -1.0000
25.3429 30.8077 4.3367 0.4712 0.8165 0.3336
19.7657 18.1946 43.0820 0.4712 0.8165 0.3336
32.1426 1.9574 65.3395 0.4712 0.8165 0.3336
4.4195 33.7798 26.6139 0.4712 0.8165 0.3336
-18.8213 27.5608 62.4148 -0.9430 -0.0000 0.3327
-11.9288 14.5397 81.9483 -0.9430 -0.0000 0.3327
-21.1740 56.6280 0.1193 0.0006 0.0000 -1.0000
-14.1921 -47.5578 19.1806 0.4712 -0.8165 0.3336
-33.0229 -42.4717 22.1671 -0.9430 -0.0000 0.3327
19.7823 -18.2340 42.9621 0.4712 -0.8165 0.3336
-24.5638 5.1683 46.1404 -0.9430 -0.0000 0.3327
38.4901 23.4838 3.6921 0.4712 0.8165 0.3336
11.8410 29.0947 27.5984 0.4712 0.8165 0.3336
29.0813 12.4957 43.8723 0.4712 0.8165 0.3336
-39.1980 40.7196 4.6669 -0.9430 -0.0000 0.3327
9.2257 15.1855 0.1382 0.0006 0.0000 -1.0000
25.5679 -20.3024 29.7288 0.4712 -0.8165 0.3336
-16.7521 48.3477 20.8632 0.4712 0.8165 0.3336
-5.8400 41.8820 21.2750 0.4712 0.8165 0.3336
-9.9263 12.5866 87.6236 -0.9430 -0.0000 0.3327
-29.4637 -0.6376 0.1142 0.0006 0.0000 -1.0000
10.6567 -31.2554 23.9829 0.4712 -0.8165 0.3336
-5.3895 27.5947 55.6049 0.4712 0.8165 0.3336
24.9162 -18.0373 0.1480 0.0006 0.0000 -1.0000
24.8085 -5.4843 67.0663 0.4712 -0.8165 0.3336
19.7814 22.3391 32.9168 0.4712 0.8165 0.3336
-35.1911 28.4685 16.0226 -0.9430 -0.0000 0.3327
44.9640 10.6447 25.9704 0.4712 0.8165 0.3336
-22.5781 -1.0238 51.7680 -0.9430 -0.0000 0.3327
17.7612 27.7756 22.4653 0.4712 0.8165 0.3336
59.6745 0.5545 0.1696 0.0006 0.0000 -1.0000
-0.0344 -19.3923 0.1325 0.0006 0.0000 -1.0000
52.8073 5.9540 26.3726 0.4712 0.8165 0.3336
-13.7535 37.6206 42.8809 0.4712 0.8165 0.3336
7.2439 33.6438 22.9579 0.4712 0.8165 0.3336
-36.5384 -46.4470 12.2041 -0.9430 -0.0000 0.3327
-18.5291 0.8198 63.2429 -0.9430 -0.0000 0.3327
36.8961 11.3149 0.1554 0.0006 0.0000 -1.0000
-34.3263 -19.4298 18.4733 -0.9430 -0.0000 0.3327
12.5959 -28.6678 27.5770 0.4712 -0.8165 0.3336
-11.0656 29.8873 58.0107 0.4712 0.8165 0.3336
9.7071 -21.9369 0.1385 0.0006 0.0000 -1.0000
63.6946 9.2138 3.0182 0.4712 0.8165 0.3336
40.1541 11.1400 31.5515 0.4712 0.8165 0.3336
1.5740 -25.0425 52.0159 0.4712 -0.8165 0.3336
24.2457 -2.9128 0.1475 0.0006 0.0000 -1.0000
11.8546 -33.7358 16.2207 0.4712 -0.8165 0.3336
-32.9590 -40.4432 22.3482 -0.9430 -0.0000 0.3327
10.6396 -20.7591 49.6952 0.4712 -0.8165 0.3336
39.3294 -19.2991 12.7481 0.4712 -0.8165 0.3336
48.3612 5.2712 0.1625 0.0006 0.0000 -1.0000
41.5403 6.0333 42.0916 0.4712 0.8165 0.3336
1.1340 30.4204 0.1332 0.0006 0.0000 -1.0000
-33.3672 32.2477 21.1915 -0.9430 -0.0000 0.3327
-23.0966 -38.1000 50.2986 -0.9430 -0.0000 0.3327
24.4752 -0.8023 78.9955 0.4712 -0.8165 0.3336
-30.3527 1.3913 29.7346 -0.9430 -0.0000 0.3327
-13.4707 14.8680 77.5788 -0.9430 -0.0000 0.3327
-0.1362 -42.2126 12.4103 0.4712 -0.8165 0.3336
4.6956 38.5786 14.4797 0.4712 0.8165 0.3336
35.9924 -15.3101 0.1548 0.0006 0.0000 -1.0000
-9.6873 48.2835 0.1265 0.0006 0.0000 -1.0000
-25.6580 60.9271 2.6553 0.4712 0.8165 0.3336
-18.5597 8.8167 0.1209 0.0006 0.0000 -1.0000
-18.0153 -2.3220 0.1213 0.0006 0.0000 -1.0000
-25.7570 47.5960 35.4208 0.4712 0.8165 0.3336
21.3496 18.3194 40.5396 0.4712 0.8165 0.3336
-30.2780 10.9811 29.9462 -0.9430 -0.0000 0.3327
66.4778 -7.1774 0.1738 0.0006 0.0000 -1.0000
17.9709 20.7592 39.3406 0.4712 0.8165 0.3336
3.4232 -5.7838 96.5368 0.4712 -0.8165 0.3336
-17.0796 21.6413 0.1219 0.0006 0.0000 -1.0000
65.6793 9.1585 0.3504 0.4712 0.8165 0.3336
-39.9267 3.8781 2.6015 -0.9430 -0.0000 0.3327
-32.6353 40.1889 23.2657 -0.9430 -0.0000 0.3327
15.7053 5.7459 79.2828 0.4712 0.8165 0.3336
16.7448 -24.1680 32.7295 0.4712 -0.8165 0.3336
-26.8284 -4.7791 39.7225 -0.9430 -0.0000 0.3327
35.7040 -18.9334 18.7636 0.4712 -0.8165 0.3336
26.7091 10.9838 50.9227 0.4712 0.8165 0.3336
-5.5339 33.4073 41.5833 0.4712 0.8165 0.3336
58.0776 -5.0870 0.1686 0.0006 0.0000 -1.0000
16.0026 -9.2737 0.1424 0.0006 0.0000 -1.0000
-26.2730 -10.5388 0.1162 0.0006 0.0000 -1.0000
31.4247 -6.5714 0.1520 0.0006 0.0000 -1.0000
-36.3532 46.0723 12.7291 -0.9430 -0.0000 0.3327
4.9209 20.1299 59.3117 0.4712 0.8165 0.3336
-1.2410 -21.9525 63.5541 0.4712 -0.8165 0.3336
-4.0294 -35.0299 35.4874 0.4712 -0.8165 0.3336
0.9143 -36.5323 24.8283 0.4712 -0.8165 0.3336
-4.3939 41.3458 0.1298 0.0006 0.0000 -1.0000
53.8856 12.5873 0.1660 0.0006 0.0000 -1.0000
9.8559 36.5158 12.2401 0.4712 0.8165 0.3336
15.1003 -1.8268 0.1419 0.0006 0.0000 -1.0000
12.7035 19.4064 50.0907 0.4712 0.8165 0.3336
-23.8574 32.5062 0.1177 0.0006 0.0000 -1.0000
-15.0264 47.5811 20.3020 0.4712 0.8165 0.3336
6.5378 32.8592 0.1365 0.0006 0.0000 -1.0000
12.6856 35.1682 0.1404 0.0006 0.0000 -1.0000
1.8888 -36.3378 23.9279 0.4712 -0.8165 0.3336
-13.2106 17.5542 78.3159 -0.9430 -0.0000 0.3327
-20.5297 24.9619 57.5732 -0.9430 -0.0000 0.3327
9.3637 -6.1889 87.1553 0.4712 -0.8165 0.3336
-7.6143 7.4270 0.1277 0.0006 0.0000 -1.0000
14.0489 30.7444 0.1412 0.0006 0.0000 -1.0000
7.4431 6.0245 90.2702 0.4712 0.8165 0.3336
-14.0057 55.0588 0.5599 0.4712 0.8165 0.3336
31.9027 -2.6364 0.1523 0.0006 0.0000 -1.0000
-17.7992 -27.6873 0.1214 0.0006 0.0000 -1.0000
-25.2414 -40.1854 44.2202 -0.9430 -0.0000 0.3327
33.6324 4.0657 58.0755 0.4712 0.8165 0.3336
38.7240 -0.3567 59.9617 0.4712 -0.8165 0.3336
-17.8462 -28.4229 0.1214 0.0006 0.0000 -1.0000
-22.1361 -53.0926 0.1187 0.0006 0.0000 -1.0000
-7.9240 -43.2243 20.9335 0.4712 -0.8165 0.3336
-5.0920 -5.1107 101.3241 -0.9430 -0.0000 0.3327
7.4530 24.1905 45.7979 0.4712 0.8165 0.3336
-3.5949 -32.4890 41.0922 0.4712 -0.8165 0.3336
9.2441 41.6630 0.5072 0.4712 0.8165 0.3336
-36.3529 54.7109 12.7300 -0.9430 -0.0000 0.3327
27.6928 -19.2490 29.3059 0.4712 -0.8165 0.3336
18.8008 17.1377 47.0315 0.4712 0.8165 0.3336
-34.6538 51.9584 17.5451 -0.9430 -0.0000 0.3327
48.3261 -11.3212 19.5661 0.4712 -0.8165 0.3336
-16.2218 -23.9743 69.7820 -0.9430 -0.0000 0.3327
-22.5013 24.8541 51.9856 -0.9430 -0.0000 0.3327
-25.1337 -19.2896 44.5253 -0.9430 -0.0000 0.3327
5.2030 38.3724 0.1357 0.0006 0.0000 -1.0000
